# .PCD v0.7 - Point Cloud Data file format
VERSION 0.7
FIELDS x y z
SIZE 4 4 4
TYPE F F F
COUNT 1 1 1
WIDTH 1516
HEIGHT 1
VIEWPOINT 0 0 0 1 0 0 0
POINTS 1516
DATA ascii
2.3462889 -0.85666662 -0.77721047
2.3612678 -0.84974998 -0.77547961
2.4120023 -0.84799999 -0.77919716
2.348151 -0.83399999 -0.77713996
2.3590758 -0.82949996 -0.77668148
2.3815267 -0.82700002 -0.77332503
2.4230332 -0.83200002 -0.77976394
2.3606665 -0.80820006 -0.77650481
2.3965881 -0.81 -0.77396297
2.4282658 -0.81400001 -0.77849168
2.3632596 -0.78866673 -0.77626944
2.3736773 -0.78299999 -0.77876896
2.4062047 -0.79149997 -0.77382255
2.4383068 -0.79799998 -0.77891701
2.3670309 -0.76950002 -0.77579838
2.3808899 -0.76300001 -0.7777797
2.4197812 -0.773 -0.77424818
2.4473579 -0.77999997 -0.77920079
2.4600859 -0.76199996 -0.77849501
2.365051 -0.74899995 -0.77551538
2.3844962 -0.745 -0.77728516
2.4255795 -0.75049996 -0.77255172
2.4570217 -0.74666667 -0.77755189
2.3579798 -0.72299999 -0.7755146
2.3837185 -0.73000002 -0.77683717
2.3991332 -0.72500002 -0.77735734
2.4446709 -0.73066664 -0.77679634
2.4736621 -0.72799999 -0.77892065
2.3086238 -0.70700002 -0.77451956
2.3608081 -0.70200002 -0.77692914
2.3842843 -0.70749998 -0.77523452
2.4052143 -0.70499998 -0.77721649
2.4337819 -0.71399999 -0.77523959
2.4344885 -0.70599997 -0.77736098
2.3145635 -0.69300002 -0.77536875
2.3393121 -0.69700003 -0.77890682
2.3793344 -0.685 -0.77452689
2.4031637 -0.68949997 -0.77742845
2.425108 -0.68866664 -0.77703011
2.320857 -0.67049998 -0.77374303
2.3493528 -0.68000001 -0.77933216
2.3591816 -0.67050004 -0.77770674
2.3852742 -0.66500002 -0.77537602
2.4132755 -0.667 -0.77735883
2.4251077 -0.66766667 -0.77702999
2.3298371 -0.648 -0.77452177
2.3646264 -0.65100002 -0.77848512
2.3862641 -0.64499998 -0.77551752
2.4250133 -0.64866668 -0.77768993
2.4411352 -0.648 -0.78033149
2.3301201 -0.63099998 -0.77254188
2.3646264 -0.63499999 -0.77848512
2.3825164 -0.62600005 -0.7770021
2.4254377 -0.63249999 -0.7770772
2.4424083 -0.62599999 -0.77849317
2.3439794 -0.60949999 -0.77452326
2.3626463 -0.61199999 -0.77820206
2.385062 -0.60600001 -0.77686089
2.4297276 -0.61400002 -0.77769047
2.4449537 -0.60600001 -0.77835196
2.3568482 -0.58749998 -0.77636302
2.3895168 -0.583 -0.7739622
2.3975773 -0.59299999 -0.78117555
2.4312358 -0.59200001 -0.77891624
2.4486306 -0.58899999 -0.77736241
2.4623485 -0.58700001 -0.7803337
2.3588283 -0.56849998 -0.77664608
2.3914969 -0.56199998 -0.77424526
2.4038 -0.574 -0.78004485
2.4313772 -0.579 -0.77792633
2.4449537 -0.56949997 -0.77835196
2.4664497 -0.56599998 -0.77990985
2.3632832 -0.54949999 -0.77728295
2.402669 -0.5485 -0.7773577
2.4344885 -0.55199999 -0.77736098
2.4697025 -0.54500002 -0.77835459
2.3353522 -0.53600001 -0.7783407
2.3628588 -0.52900004 -0.77671719
2.4189322 -0.537 -0.78018785
2.4413474 -0.53199995 -0.77884662
2.4805918 -0.52499998 -0.77991128
2.344898 -0.5115 -0.77869529
2.3760109 -0.51049995 -0.77657712
2.3954566 -0.51999998 -0.77481139
2.4250131 -0.51800001 -0.780047
2.4483476 -0.51200002 -0.77934229
2.4895012 -0.505 -0.78118503
2.3526056 -0.486 -0.77777678
2.3574138 -0.49150002 -0.77947438
2.3840013 -0.484 -0.77721435
2.3964467 -0.49900001 -0.77495289
2.4302459 -0.498 -0.77877474
2.4519539 -0.48949999 -0.77884769
2.3507674 -0.47600001 -0.7765038
2.365828 -0.4675 -0.78067726
2.3811729 -0.465 -0.77579987
2.3946083 -0.47799999 -0.77367991
2.4471455 -0.47049999 -0.78068566
2.4593787 -0.46700001 -0.77990913
2.3635893 -0.45066667 -0.77867359
2.3884563 -0.4515 -0.77431566
2.4593787 -0.44600001 -0.77990913
2.3535957 -0.433 -0.77791834
2.3787684 -0.42933333 -0.77848661
2.3965881 -0.43599999 -0.77396297
2.4654598 -0.42899999 -0.77976835
2.3400197 -0.40799999 -0.77395713
2.3838952 -0.40800002 -0.77795678
2.3984263 -0.41499999 -0.77523595
2.4680762 -0.41100001 -0.77913219
2.4766321 -0.40400001 -0.77934521
2.3468077 -0.38800001 -0.77593774
2.3862636 -0.38699999 -0.77905303
2.397295 -0.38850001 -0.77608436
2.4725308 -0.382 -0.77976906
2.3468077 -0.366 -0.77593774
2.3902943 -0.36699998 -0.7791242
2.4018204 -0.36949998 -0.77622622
2.4805918 -0.36199999 -0.77991128
2.3448277 -0.34400001 -0.77565467
2.3561409 -0.34999999 -0.7813127
2.3924868 -0.352 -0.77438682
2.3983788 -0.347 -0.77792293
2.340868 -0.322 -0.77508861
2.3592522 -0.33000001 -0.78074735
2.3934767 -0.33199999 -0.77452832
2.4008303 -0.32666668 -0.77726322
2.3350699 -0.30000001 -0.77324951
2.3603835 -0.31 -0.77989894
2.3927698 -0.30700001 -0.77240694
2.3963754 -0.3075 -0.77898341
2.4203465 -0.31 -0.77735949
2.3683031 -0.29100001 -0.78103107
2.3927698 -0.28600001 -0.77240694
2.397012 -0.28749999 -0.77806425
2.4216194 -0.29100001 -0.77552116
2.3350699 -0.27900001 -0.77324951
2.3704245 -0.271 -0.78032422
2.3907897 -0.26899999 -0.77212387
2.4286904 -0.27200001 -0.77552187
2.3301201 -0.257 -0.77254188
2.3857458 -0.249 -0.77443326
2.3946073 -0.25999999 -0.78075099
2.4337819 -0.25299999 -0.77523959
2.3155534 -0.229 -0.77551025
2.3349283 -0.236 -0.77423942
2.384284 -0.227 -0.77523446
2.3966584 -0.23649999 -0.77700353
2.4446709 -0.235 -0.77679634
2.3263016 -0.212 -0.77452141
2.379617 -0.211 -0.77961808
2.3986382 -0.2165 -0.77728659
2.4459438 -0.215 -0.77495795
2.3292716 -0.1925 -0.77494603
2.3868296 -0.1955 -0.77509332
2.39779 -0.1965 -0.77615511
2.4548533 -0.19599999 -0.77623171
2.3319585 -0.17200001 -0.77381486
2.3364837 -0.17299999 -0.77749234
2.3883855 -0.17500001 -0.77481067
2.3982849 -0.176 -0.77622586
2.2680366 -0.14300001 -0.76871717
2.3299785 -0.15099999 -0.77353179
2.3346453 -0.154 -0.77621931
2.3888805 -0.154 -0.77488142
2.4001942 -0.156 -0.77700388
2.3309686 -0.13 -0.77367336
2.3407264 -0.13500001 -0.77607852
2.3899412 -0.133 -0.77452797
2.3963757 -0.1355 -0.77544785
2.2710066 -0.104 -0.76914173
2.3260188 -0.108 -0.77296573
2.340868 -0.116 -0.77508861
2.3906956 -0.11266667 -0.77278388
2.3947489 -0.117 -0.77976102
2.3154128 -0.086999997 -0.76942909
2.3449693 -0.096000001 -0.77466476
2.3899407 -0.093500003 -0.77806348
2.3958812 -0.093000002 -0.77184159
2.2739761 -0.064999998 -0.76956624
2.3164027 -0.066 -0.76957065
2.347939 -0.077 -0.77508932
2.3873482 -0.072666667 -0.77499908
2.3951743 -0.071999997 -0.7697202
2.2729862 -0.046 -0.76942474
2.3222008 -0.045000002 -0.77140975
2.3528886 -0.057999998 -0.77579695
2.3906012 -0.052000001 -0.77580082
2.3991339 -0.052000001 -0.77028626
2.2739761 -0.026000001 -0.76956624
2.3162611 -0.024 -0.77056056
2.3540201 -0.037999999 -0.77494854
2.3857455 -0.031666666 -0.77443326
2.3963058 -0.030999999 -0.76887172
2.2749662 -0.0070000002 -0.7697078
2.3162611 -0.0040000002 -0.77056056
2.3569901 -0.017999999 -0.7753731
2.3863585 -0.011333334 -0.77485758
2.3981442 -0.011 -0.77014476
2.2741177 0.012 -0.76857632
2.3162611 0.016000001 -0.77056056
2.3571315 0 -0.77438319
2.3863115 0.0083333338 -0.77518755
2.3992755 0.0089999996 -0.76929635
2.2731278 0.032000002 -0.76843482
2.3220592 0.037 -0.77239966
2.3572731 0.02 -0.77339327
2.3846614 0.028666666 -0.7749517
2.3992755 0.028999999 -0.76929635
2.2722795 0.050999999 -0.76730335
2.3210692 0.057999998 -0.7722581
2.3620811 0.039999999 -0.77509075
2.3855572 0.049333334 -0.7757532
2.4030936 0.050000001 -0.77085239
2.2722795 0.071000002 -0.76730335
2.3210692 0.078000002 -0.7722581
2.3647327 0.069499999 -0.77597493
2.3881028 0.074000001 -0.77325499
2.4070537 0.071999997 -0.77141845
2.2790675 0.090999998 -0.76928395
2.3210692 0.098999999 -0.7722581
2.3619397 0.098499998 -0.77608073
2.383153 0.090000004 -0.77608293
2.4022453 0.092 -0.76972091
2.2800572 0.111 -0.76942551
2.3585451 0.117 -0.77862597
2.3847086 0.105 -0.77226466
2.4032352 0.113 -0.76986241
2.2800572 0.131 -0.76942551
2.3220592 0.12 -0.77239966
2.3612797 0.13166668 -0.77598637
2.3865473 0.126 -0.7735377
2.4091749 0.13500001 -0.77071154
2.2792089 0.15099999 -0.76829404
2.3248875 0.141 -0.77381414
2.3494945 0.155 -0.77834219
2.3632126 0.15899999 -0.77424234
2.3850622 0.147 -0.77332538
2.4063466 0.156 -0.76929706
2.2719963 0.161 -0.76928324
2.285007 0.17200001 -0.77013314
2.3113115 0.16 -0.769853
2.3425646 0.17299999 -0.7773515
2.3680916 0.1745 -0.77544498
2.3912146 0.16500001 -0.76915407
2.4063466 0.177 -0.76929706
2.2780776 0.18700001 -0.76914245
2.3142812 0.18099999 -0.77027756
2.3384635 0.191 -0.77777535
2.3709905 0.189 -0.77636451
2.3931944 0.18700001 -0.76943713
2.4111547 0.199 -0.7709946
2.2781484 0.2075 -0.76864749
2.3123014 0.20100001 -0.7699945
2.3343623 0.20999999 -0.7781992
2.36795 0.2045 -0.7764349
2.3931944 0.20900001 -0.76943713
2.2739761 0.22400001 -0.76956624
2.2841585 0.233 -0.7690016
2.3113115 0.222 -0.769853
2.3615153 0.22400001 -0.77551496
2.3903661 0.23100001 -0.7680226
2.413276 0.22 -0.77028769
2.4503987 0.2295 -0.77559483
2.2721379 0.244 -0.76829332
2.2823203 0.25299999 -0.76772869
2.3161194 0.243 -0.77155048
2.3628588 0.24399999 -0.77671719
2.3903661 0.25299999 -0.7680226
2.4436812 0.25799999 -0.77665484
2.279633 0.26949999 -0.76885974
2.3123014 0.26300001 -0.7699945
2.3509088 0.26699999 -0.77551389
2.3561413 0.25999999 -0.77424163
2.3913562 0.27500001 -0.76816416
2.4180844 0.264 -0.77198529
2.4385898 0.27599999 -0.77693713
2.2741177 0.28600001 -0.76857632
2.28529 0.29499999 -0.76815325
2.3121598 0.28299999 -0.77098441
2.3516157 0.287 -0.77763528
2.3579798 0.28099999 -0.7755146
2.3933358 0.29699999 -0.76844716
2.4326501 0.294 -0.776088
2.2873645 0.30833334 -0.76777631
2.3445451 0.30250001 -0.77409899
2.4275591 0.31200001 -0.77637035
2.2837346 0.333 -0.76843596
2.3414338 0.32249999 -0.7746644
2.3992755 0.31999999 -0.76929635
2.4185081 0.33000001 -0.77608651
2.2856436 0.354 -0.76921391
2.3073516 0.34299999 -0.76928687
2.3316755 0.34299999 -0.77579474
2.3439794 0.34 -0.77452326
2.3964472 0.34200001 -0.76788181
2.4144068 0.34799999 -0.77651036
2.2866335 0.37550002 -0.76935542
2.3101799 0.36399999 -0.77070135
2.3284225 0.36199999 -0.77735007
2.3400197 0.36000001 -0.77395713
2.4062753 0.36500001 -0.77332759
2.2838755 0.39300001 -0.77098149
2.30721 0.38299999 -0.77027678
2.316685 0.38 -0.7746619
2.3369083 0.38 -0.77452248
2.3989451 0.38933334 -0.77396315
2.287694 0.40700001 -0.76900196
2.3042405 0.403 -0.76985222
2.3299785 0.40000001 -0.77353179
2.3852742 0.41499999 -0.77537602
2.4022453 0.40900001 -0.76972091
2.4370346 0.40000001 -0.77368432
2.290169 0.42899999 -0.76935577
2.3042405 0.42300001 -0.76985222
2.3258774 0.41999999 -0.7739557
2.3820212 0.433 -0.77693129
2.4004068 0.43099999 -0.76844794
2.4286904 0.43799999 -0.77552187
2.4367516 0.41999999 -0.77566415
2.2762392 0.45500001 -0.76786947
2.3061259 0.44833335 -0.77079523
2.3227661 0.44 -0.77452105
2.3702838 0.44800001 -0.77424312
2.401397 0.45300001 -0.76858944
2.4265692 0.458 -0.77622879
2.243572 0.46900001 -0.75612813
2.3002808 0.46399999 -0.76928616
2.3670309 0.46399999 -0.77579838
2.4075482 0.47549999 -0.7714892
2.2490878 0.491 -0.75287598
2.2734115 0.48100001 -0.75938392
2.2925026 0.47999999 -0.76716405
2.3036745 0.49700001 -0.773812
2.3490703 0.495 -0.77424091
2.3629293 0.48100001 -0.77622223
2.4064877 0.49650002 -0.77184266
2.347939 0.51099998 -0.77508932
2.4004064 0.51300001 -0.77551901
2.4320848 0.50400001 -0.77297664
2.2645013 0.52899998 -0.76518124
2.340868 0.52600002 -0.77508861
2.3895168 0.52999997 -0.7739622
2.4063466 0.52100003 -0.76929706
2.4226098 0.52999997 -0.77212715
2.3278573 0.55500001 -0.77423877
2.3387465 0.542 -0.77579546
2.3842843 0.54900002 -0.77523452
2.4083266 0.54400003 -0.76958013
2.4161751 0.54750001 -0.77120727
2.302402 0.579 -0.76857924
2.3199377 0.56900001 -0.77310652
2.3772132 0.56699997 -0.77523375
2.4125688 0.56550002 -0.77170187
2.3691521 0.58399999 -0.77509153
2.4033296 0.58766669 -0.77155954
2.3510504 0.61799997 -0.77452397
2.3581214 0.60100001 -0.77452469
2.3910728 0.60600001 -0.77014399
2.4202058 0.60500002 -0.77127838
2.3323832 0.63200003 -0.77084506
2.3883152 0.62399995 -0.77177006
2.3445461 0.65899998 -0.76349241
2.3728297 0.65200001 -0.7705664
2.3822341 0.64049995 -0.77191091
2.4112964 0.64399999 -0.77000469
2.3686576 0.66900003 -0.77148521
2.4073367 0.66299999 -0.76943862
2.4241655 0.667 -0.77184451
2.3506267 0.69499999 -0.7704227
2.4099293 0.68633336 -0.77014595
2.4200642 0.68099999 -0.77226835
2.3001406 0.70099998 -0.75613397
2.3885279 0.71700001 -0.76674968
2.4049675 0.70750004 -0.77011007
2.3941844 0.72299999 -0.7695787
2.3982856 0.73000002 -0.76915479
2.394326 0.81 -0.76858872
2.3974373 0.81 -0.76802337
2.4158921 0.80599999 -0.7731871
2.3449705 0.82200003 -0.7605226
2.3592536 0.83899999 -0.7666052
2.3810322 0.82700002 -0.76971877
2.4058747 0.82699996 -0.77259684
2.4134171 0.84850001 -0.77283329
2.4121447 0.861 -0.77113611
2.4205592 0.87450004 -0.77233911
2.3745272 0.89899999 -0.76575828
2.4093163 0.884 -0.76972163
2.430105 0.89100003 -0.77269363
2.3868306 0.90900004 -0.76802224
2.4065585 0.90399998 -0.77134764
2.4206297 0.90249997 -0.77184409
2.4034474 0.9285 -0.77191305
2.4211957 0.99199998 -0.77141994
2.5968401 -1.216 -0.77935761
2.513401 -1.182 -0.78359163
2.527827 -1.187 -0.77454215
2.5860925 -1.1849999 -0.77681088
2.5491815 -1.1715 -0.77708995
2.5976884 -1.164 -0.78048903
2.5015218 -1.152 -0.78189331
2.5414023 -1.148 -0.78557444
2.5744953 -1.156 -0.78020382
2.5815663 -1.141 -0.78020453
2.4988353 -1.127 -0.77948892
2.5466349 -1.127 -0.78430218
2.5906174 -1.127 -0.78048831
2.5957088 -1.137 -0.78020602
2.5114212 -1.108 -0.78330857
2.5558276 -1.108 -0.78359604
2.5928097 -1.109 -0.7792865
2.5047746 -1.082 -0.78033805
2.5683436 -1.0864999 -0.78083962
2.5851021 -1.087 -0.77902633
2.6016486 -1.0933334 -0.77869815
2.5437601 -1.0700001 -0.7785036
2.5576665 -1.079 -0.77779788
2.5760508 -1.069 -0.78345668
2.6080124 -1.076 -0.77893448
2.5029364 -1.057 -0.77906507
2.522547 -1.0516666 -0.77850139
2.5840414 -1.0505 -0.78055835
2.6140935 -1.059 -0.77879369
2.4928956 -1.04 -0.77863979
2.5057931 -1.0323999 -0.77886742
2.5215333 -1.0369999 -0.77970338
2.5394232 -1.0295 -0.77822036
2.5575249 -1.025 -0.77878785
2.5875769 -1.0274999 -0.78055871
2.502465 -1.0100001 -0.78000784
2.5718088 -1.0165 -0.77779943
2.584254 -1.006 -0.77553791
2.6084363 -1.0089999 -0.78303576
2.4870267 -0.98749995 -0.77729571
2.5020878 -0.98500001 -0.7779336
2.5759101 -0.99900001 -0.77737552
2.6166389 -0.98799998 -0.78218806
2.4816294 -0.96633339 -0.77736586
2.5010979 -0.96100003 -0.7777921
2.5767584 -0.97399998 -0.77850699
2.6258314 -0.96700001 -0.78148192
2.4815111 -0.94800001 -0.77701229
2.5689805 -0.94599998 -0.77638489
2.464046 -0.93350005 -0.77552557
2.482784 -0.92975003 -0.77694166
2.5010979 -0.93699998 -0.7777921
2.4895017 -0.91224998 -0.77764946
2.4988353 -0.90700001 -0.77595335
2.5648792 -0.91900003 -0.77680868
2.4898784 -0.88599998 -0.77854514
2.5032196 -0.89033335 -0.77708519
2.5619092 -0.89300001 -0.77638412
2.5006173 -0.86879998 -0.77691519
2.5276854 -0.87 -0.77553207
2.5617678 -0.86699998 -0.77737409
2.5013101 -0.84775007 -0.77807498
2.5399187 -0.85049999 -0.77475554
2.5617678 -0.84200001 -0.77737409
2.5038323 -0.83399993 -0.77750957
2.5218868 -0.82300001 -0.7807641
2.5517268 -0.8265 -0.77694875
2.5627577 -0.82599998 -0.77751559
2.5839713 -0.83099997 -0.7775178
2.5972648 -0.83200002 -0.77638775
2.5057294 -0.81075001 -0.77719152
2.5263772 -0.80925 -0.77761793
2.5611081 -0.81233335 -0.77492273
2.6200333 -0.801 -0.77964282
2.4841275 -0.78549999 -0.77637613
2.5015578 -0.79425001 -0.77634257
2.5183516 -0.78799999 -0.77722818
2.5426052 -0.78499997 -0.77715993
2.5725162 -0.78799999 -0.77284968
2.6031337 -0.78550005 -0.7777319
2.4699852 -0.77100003 -0.77637464
2.4933202 -0.76700002 -0.77566999
2.5095837 -0.76700002 -0.77496457
2.5214627 -0.773 -0.77666283
2.5479088 -0.764 -0.77539277
2.5882137 -0.77600002 -0.77610403
2.5995271 -0.76699996 -0.77822649
2.4893603 -0.74299997 -0.77510387
2.510715 -0.74599999 -0.77411616
2.5293825 -0.75800002 -0.77779502
2.5394232 -0.75199997 -0.77822036
2.5872707 -0.75099999 -0.77798957
2.5146749 -0.72600001 -0.77468222
2.5439959 -0.73466665 -0.77685374
2.5702527 -0.72100002 -0.78161758
2.5778899 -0.72899997 -0.77765858
2.4432573 -0.71499997 -0.77255356
2.4826429 -0.71350002 -0.77616388
2.5158062 -0.704 -0.77383381
2.5447266 -0.713 -0.77645308
2.5768292 -0.713 -0.77801204
2.4508941 -0.69150001 -0.77213007
2.4867439 -0.6925 -0.77573997
2.5197661 -0.68300003 -0.77439994
2.5481913 -0.69300002 -0.77694845
2.5607779 -0.68099999 -0.77723259
2.576287 -0.69300002 -0.77944976
2.4595206 -0.667 -0.77184814
2.4844108 -0.67000002 -0.77439624
2.4989767 -0.67299998 -0.77849901
2.5217459 -0.662 -0.77468294
2.5397062 -0.66500002 -0.77624047
2.5678489 -0.66500002 -0.77723324
2.5824857 -0.676 -0.78084105
2.4626319 -0.64999998 -0.77128273
2.4834208 -0.64600003 -0.77425474
2.5129774 -0.65499997 -0.77949041
2.5826626 -0.65325004 -0.77960366
2.4647536 -0.63300002 -0.77057588
2.4842691 -0.62300003 -0.77538621
2.5208972 -0.63800001 -0.77708703
2.5357463 -0.63999999 -0.77567434
2.5803647 -0.63250005 -0.77801239
2.5996685 -0.63599998 -0.78077209
2.4600868 -0.61400002 -0.76788837
2.5301838 -0.61766666 -0.77689946
2.5831225 -0.61299998 -0.77874333
2.6135275 -0.616 -0.78275341
2.4603698 -0.59500003 -0.76590848
2.4842691 -0.59899998 -0.77538621
2.5296652 -0.59450001 -0.77581513
2.5401301 -0.59899998 -0.78034168
2.5797281 -0.59100002 -0.77893156
2.6010828 -0.59799999 -0.77794379
2.6187603 -0.59299999 -0.78148115
2.4653196 -0.57800001 -0.76661611
2.47734 -0.56849998 -0.77086002
2.5267663 -0.57050002 -0.77489561
2.5463529 -0.579 -0.77921098
2.5641716 -0.56099999 -0.78175837
2.5852435 -0.56949997 -0.77921498
2.6208816 -0.57099998 -0.7807743
2.4589546 -0.55500001 -0.77580786
2.4845521 -0.5485 -0.77340633
2.5281804 -0.5485 -0.77560288
2.5672829 -0.54000002 -0.78119302
2.5887792 -0.54799998 -0.77921534
2.6299326 -0.55000001 -0.78105801
2.4698441 -0.53899997 -0.77736461
2.4824309 -0.52566665 -0.77411324
2.5266957 -0.5255 -0.77539062
2.5918906 -0.53299999 -0.77864999
2.4811578 -0.505 -0.77595156
2.5018055 -0.50999999 -0.77284241
2.5288169 -0.50800002 -0.77468365
2.5735056 -0.51999998 -0.78006226
2.5882134 -0.509 -0.77963954
2.5999515 -0.50199997 -0.7787922
2.4856124 -0.48500001 -0.77658838
2.4987648 -0.48650002 -0.77644831
2.5262008 -0.49150002 -0.77531987
2.6058912 -0.486 -0.77964139
2.5009096 -0.46733332 -0.77675498
2.5266957 -0.46850002 -0.77539062
2.5896275 -0.47999999 -0.78034681
2.6060326 -0.46900001 -0.77865142
2.4800265 -0.45899999 -0.77679998
2.5079334 -0.44866666 -0.77708572
2.5247157 -0.44550002 -0.77510756
2.5947187 -0.45899999 -0.78006446
2.6169219 -0.454 -0.78020817
2.4732385 -0.435 -0.77481937
2.5099373 -0.42949998 -0.77248967
2.5162301 -0.43399999 -0.77793509
2.6047595 -0.43900001 -0.7804898
2.6180532 -0.43700001 -0.77935976
2.4722483 -0.412 -0.77467781
2.5104792 -0.41200003 -0.77576602
2.5242207 -0.417 -0.77503675
2.608861 -0.41800001 -0.78006595
2.4692786 -0.389 -0.77425325
2.4787533 -0.38800001 -0.7786383
2.5125062 -0.39066663 -0.77571911
2.5316453 -0.39649999 -0.77609825
2.615932 -0.39700001 -0.78006667
2.4663088 -0.36500001 -0.77382874
2.4876628 -0.37200001 -0.77991199
2.5132608 -0.37200001 -0.77043945
2.522877 -0.37550002 -0.7773701
2.5385747 -0.37799999 -0.77708882
2.6200333 -0.37599999 -0.77964282
2.4653189 -0.34299999 -0.77368718
2.4882288 -0.34850001 -0.77948785
2.5076036 -0.35800001 -0.77468151
2.5223587 -0.35300002 -0.77510726
2.5446558 -0.359 -0.77694803
2.490845 -0.32950002 -0.77885169
2.5056942 -0.329 -0.777439
2.5230188 -0.33133331 -0.77520162
2.5507371 -0.34 -0.77680725
2.5587978 -0.32100001 -0.77694952
2.464329 -0.31999999 -0.77354568
2.502748 -0.30599999 -0.77802801
2.5198605 -0.30933332 -0.77373999
2.5610609 -0.301 -0.7752527
2.4622076 -0.29699999 -0.77425253
2.5097249 -0.28850001 -0.77751017
2.523443 -0.28800002 -0.77458888
2.5689805 -0.28099999 -0.77638489
2.4622076 -0.27500001 -0.77425253
2.5011687 -0.27450001 -0.77729714
2.5249982 -0.27000001 -0.77784169
2.5838294 -0.26199999 -0.77850771
2.4592376 -0.252 -0.77382797
2.5002496 -0.25299999 -0.77666062
2.5248926 -0.2525 -0.77563792
2.5859509 -0.242 -0.77780086
2.4592376 -0.23 -0.77382797
2.4998252 -0.2315 -0.77609491
2.5252459 -0.23124999 -0.77493083
2.591042 -0.222 -0.77751851
2.4562678 -0.207 -0.77340341
2.4947345 -0.20299999 -0.77284169
2.5061893 -0.21699999 -0.77750981
2.5272613 -0.21075 -0.77496636
2.5933051 -0.20100001 -0.77582169
2.4562678 -0.184 -0.77340341
2.5033607 -0.18849999 -0.77609521
2.5270846 -0.1895 -0.774436
2.6051841 -0.18099999 -0.77751994
2.4532983 -0.162 -0.7729789
2.4579647 -0.176 -0.7756663
2.5112803 -0.175 -0.77722746
2.5253286 -0.16600001 -0.77317482
2.5414031 -0.176 -0.77850336
2.4620659 -0.156 -0.77524251
2.496573 -0.16 -0.77411467
2.5227356 -0.14675 -0.7748245
2.5397062 -0.15700001 -0.77624047
2.4484899 -0.139 -0.7712813
2.4602277 -0.13600001 -0.77396953
2.4906335 -0.138 -0.77326554
2.5095837 -0.133 -0.77496457
2.5234432 -0.1235 -0.76987481
2.5438075 -0.138 -0.77581662
2.4465101 -0.117 -0.77099824
2.4672987 -0.116 -0.77397025
2.4858251 -0.117 -0.771568
2.5125532 -0.112 -0.77538908
2.5227833 -0.10766667 -0.77213752
2.5488987 -0.118 -0.77553427
2.4465101 -0.094999999 -0.77099824
2.4692786 -0.096000001 -0.77425325
2.4828553 -0.096000001 -0.77114338
2.5105736 -0.090999998 -0.77510607
2.5183516 -0.098999999 -0.77722818
2.5538485 -0.098999999 -0.7762419
2.4455202 -0.072999999 -0.77085674
2.4714 -0.075999998 -0.7735464
2.4838455 -0.074000001 -0.77128494
2.5144625 -0.074000001 -0.77616709
2.5221 -0.078999996 -0.76867259
2.5569596 -0.079000004 -0.77567655
2.4425504 -0.050999999 -0.77043217
2.4697032 -0.056000002 -0.77128345
2.4876635 -0.052999999 -0.77284098
2.5135434 -0.054000001 -0.77317357
2.5227365 -0.057999998 -0.76775342
2.563041 -0.059 -0.77553576
2.4435403 -0.028999999 -0.77057368
2.4726729 -0.035 -0.77170807
2.4837039 -0.032000002 -0.77227485
2.5115638 -0.032499999 -0.77524763
2.5211806 -0.035 -0.76803607
2.5660107 -0.039000001 -0.77596033
2.4367521 -0.0070000002 -0.76859307
2.4767742 -0.013 -0.77128416
2.509584 -0.0135 -0.771429
2.5211098 -0.011 -0.77206659
2.5711019 -0.018999999 -0.77567798
2.4367521 0.013 -0.76859307
2.481158 0.0065000001 -0.772416
2.5085227 0.0080000004 -0.77531803
2.5230901 0.0079999994 -0.76881409
2.5712433 0.001 -0.77468807
2.4376009 0.035 -0.76972455
2.4797442 0.026999999 -0.77170879
2.5082641 0.030333335 -0.77241886
2.5278277 0.027000001 -0.76747113
2.5713849 0.021 -0.77369809
2.4405706 0.057 -0.77014911
2.4822187 0.048 -0.77206254
2.5075099 0.052000001 -0.77298445
2.531646 0.048999999 -0.76902711
2.5773244 0.041999999 -0.77454728
2.4356208 0.079000004 -0.76944149
2.4843166 0.067000002 -0.77269918
2.5085936 0.075999998 -0.77482301
2.5232315 0.075000003 -0.76782417
2.5804358 0.063000001 -0.77398187
2.4813466 0.087333329 -0.77227461
2.5018055 0.097000003 -0.77284241
2.5307977 0.093000002 -0.7678957
2.5794461 0.083999999 -0.77384037
2.4376009 0.1 -0.76972455
2.4816296 0.10766667 -0.77265173
2.5081699 0.10950001 -0.77072173
2.5309391 0.115 -0.76690573
2.5901937 0.105 -0.7763871
2.433641 0.122 -0.76915842
2.4821479 0.12800001 -0.77373606
2.5025125 0.139 -0.7749638
2.5262721 0.131 -0.76775378
2.591325 0.126 -0.77553862
2.4385905 0.14399999 -0.76986605
2.4743698 0.147 -0.77397096
2.4886534 0.15000001 -0.77298248
2.5206153 0.148 -0.76846033
2.4356208 0.16500001 -0.76944149
2.4714 0.167 -0.7735464
2.4876635 0.171 -0.77284098
2.5015225 0.16 -0.77482229
2.527262 0.16499999 -0.76789528
2.4308128 0.186 -0.76774395
2.4673696 0.1865 -0.77347529
2.4838455 0.192 -0.77128494
2.4964316 0.18000001 -0.77510464
2.5287468 0.1875 -0.76810759
2.4346309 0.208 -0.76929998
2.464329 0.206 -0.77354568
2.4818654 0.213 -0.77100188
2.4954414 0.20100001 -0.77496308
2.5235851 0.21600001 -0.7688849
2.5378687 0.205 -0.76789641
2.433641 0.229 -0.76915842
2.4697032 0.23 -0.77128345
2.4880171 0.22749999 -0.77390164
2.5207567 0.23899999 -0.76747036
2.5971231 0.233 -0.77737772
2.4104478 0.241 -0.76887321
2.432651 0.25099999 -0.76901692
2.4677234 0.25 -0.77100044
2.4835622 0.248 -0.77326477
2.5447981 0.25 -0.76888704
2.5930219 0.25299999 -0.77780157
2.432651 0.27200001 -0.76901692
2.4685717 0.26899999 -0.77213186
2.4800265 0.26899999 -0.77326441
2.5159485 0.26199999 -0.76577282
2.5477681 0.27399999 -0.76931161
2.5821326 0.27200001 -0.77624476
2.4134176 0.285 -0.76929778
2.433641 0.294 -0.76915842
2.4716122 0.29299998 -0.77206147
2.478188 0.28200001 -0.775527
2.5237267 0.28600001 -0.76789492
2.5702534 0.29100001 -0.7745465
2.4196403 0.31050003 -0.76816702
2.4707873 0.30933332 -0.77312207
2.5218883 0.30899999 -0.76662195
2.567142 0.31 -0.77511191
2.4182262 0.33200002 -0.76745981
2.4641404 0.32933334 -0.77250856
2.531646 0.333 -0.76902711
2.5551212 0.32800001 -0.77440351
2.4235291 0.354 -0.7692281
2.4593084 0.34350002 -0.77333301
2.5288177 0.35600001 -0.76761264
2.5500302 0.347 -0.77468586
2.4260042 0.37650001 -0.76958191
2.4519548 0.36199999 -0.77177662
2.4665921 0.36000001 -0.77184886
2.5488987 0.366 -0.77553427
2.4250851 0.39749998 -0.7689454
2.4432576 0.38633335 -0.77019656
2.4605107 0.38 -0.77198964
2.5336258 0.38 -0.76931018
2.5378678 0.384 -0.77496743
2.5863755 0.389 -0.77483106
2.5972648 0.38299999 -0.77638775
2.4234583 0.419 -0.76972306
2.4407122 0.417 -0.7691592
2.4555609 0.40099999 -0.77128202
2.5291474 0.40799999 -0.77237386
2.5824156 0.40650001 -0.77426493
2.4275599 0.421 -0.76929927
2.4415605 0.435 -0.77029061
2.4552779 0.42199999 -0.7732619
2.5242918 0.43149999 -0.77100623
2.5769002 0.428 -0.77398151
2.42558 0.44100001 -0.76901621
2.445308 0.44800001 -0.77234161
2.5067554 0.45300001 -0.77355009
2.536737 0.45100001 -0.76874477
2.5708191 0.44850001 -0.7741223
2.42558 0.463 -0.76901621
2.4412775 0.46700001 -0.7722705
2.5054822 0.47099999 -0.77538836
2.5377271 0.47400001 -0.76888633
2.5648088 0.46899998 -0.77376813
2.4294927 0.48599997 -0.7699123
2.4371762 0.48300001 -0.77269435
2.4945931 0.48699999 -0.77383161
2.5449393 0.48949999 -0.77143264
2.5654452 0.498 -0.77284896
2.4285023 0.50566667 -0.76977068
2.4885118 0.50400001 -0.77397245
2.5332015 0.51899999 -0.77227998
2.5412621 0.5 -0.77242219
2.4287381 0.52600002 -0.77047789
2.4735215 0.53500003 -0.77283949
2.4814408 0.51999998 -0.77397168
2.5241504 0.53799999 -0.7719962
2.5388587 0.52200001 -0.76803792
2.5639603 0.52649999 -0.77263671
2.4304588 0.55050004 -0.77021879
2.4702687 0.55199999 -0.77439481
2.5259891 0.551 -0.76973367
2.5534246 0.542 -0.77214062
2.5586572 0.55299997 -0.77086836
2.4054983 0.56599998 -0.76816559
2.4289739 0.57200003 -0.77000648
2.4623489 0.56699997 -0.77326262
2.5118465 0.57599998 -0.77326769
2.5515389 0.57200003 -0.77119762
2.4076905 0.5855 -0.76696378
2.4523792 0.58950001 -0.77234238
2.4978459 0.59399998 -0.77227634
2.5464005 0.5916667 -0.77180988
2.4094579 0.61199999 -0.76873165
2.4327924 0.60100001 -0.76802701
2.4452372 0.61199999 -0.77283657
2.4927547 0.61299998 -0.77255863
2.5381041 0.611 -0.77096057
2.410943 0.62900001 -0.76894397
2.4389441 0.62599999 -0.77092671
2.4865322 0.63200003 -0.77368939
2.5292413 0.63199997 -0.77171385
2.538434 0.62699997 -0.77100772
2.4074781 0.65700001 -0.76844865
2.4299638 0.64633334 -0.77132654
2.4398634 0.64899999 -0.76802772
2.4736631 0.648 -0.77184957
2.5220997 0.65024996 -0.77044034
2.4086096 0.67900002 -0.76760024
2.4203475 0.66500002 -0.77028847
2.4380252 0.671 -0.76675475
2.4664505 0.667 -0.77283883
2.5136144 0.6735 -0.77150011
2.5183523 0.671 -0.7701571
2.5487578 0.676 -0.76945311
2.4428334 0.69599998 -0.76845229
2.4564095 0.68300003 -0.77241349
2.5096784 0.69133335 -0.77194756
2.5428183 0.69499999 -0.76860398
2.5725162 0.68900001 -0.77284968
2.4086096 0.70200002 -0.76760024
2.4432576 0.71233338 -0.77019656
2.4940751 0.71233338 -0.77039033
2.5100083 0.69999999 -0.77199477
2.5408385 0.71499997 -0.76832098
2.5677552 0.70866662 -0.77317923
2.4028115 0.72299999 -0.7657612
2.4255097 0.73500001 -0.76597565
2.4408543 0.73799998 -0.76109815
2.4644713 0.73100001 -0.76548469
2.4821012 0.72900003 -0.76935196
2.538717 0.736 -0.76902783
2.5569601 0.72750002 -0.77214098
2.478754 0.75400001 -0.77156723
2.5490408 0.74400002 -0.77100885
2.3862655 0.82999998 -0.76137543
2.4346309 0.82800001 -0.76929998
2.4445302 0.83700001 -0.77071524
2.4883711 0.83899999 -0.76789129
2.3842857 0.852 -0.76109236
2.4275599 0.847 -0.76929927
2.4437525 0.8495 -0.76908875
2.5105743 0.84899998 -0.76803499
2.5426292 0.85100001 -0.76992387
2.3814573 0.87300003 -0.75967783
2.4243071 0.8725 -0.77085453
2.4521675 0.86500001 -0.76675618
2.4917648 0.86299998 -0.77241713
2.5005336 0.87199998 -0.76760972
2.5248578 0.86866665 -0.76940358
2.5431011 0.87049997 -0.77015966
2.3480818 0.88999999 -0.75995725
2.3707097 0.89099997 -0.75713116
2.4477832 0.89899999 -0.76915991
2.4629152 0.89400005 -0.76930285
2.4849768 0.88566667 -0.77043653
2.4994018 0.884 -0.76845813
2.5501013 0.8915 -0.77065539
2.4284081 0.90399998 -0.77043068
2.4445586 0.90799999 -0.77051723
2.4641879 0.9095 -0.77100009
2.4931791 0.91900003 -0.76958883
2.500109 0.903 -0.77057952
2.5610614 0.912 -0.77171713
2.4519551 0.93800002 -0.76824111
2.4642231 0.92699999 -0.77075261
2.4835627 0.93650001 -0.76972926
2.5487578 0.93199998 -0.76945311
2.4442472 0.95700002 -0.77269506
2.4821484 0.94550002 -0.76902205
2.5056949 0.94599998 -0.77036792
2.5278981 0.9515 -0.77051169
2.5450101 0.95350003 -0.77093768
2.5640311 0.954 -0.7721417
2.4342065 0.97600001 -0.77226979
2.4670873 0.96600002 -0.7683841
2.5285347 0.97000003 -0.76959252
2.5563943 0.97299999 -0.77256519
2.4609826 0.98866671 -0.76868987
2.5194836 0.98799998 -0.76930869
2.5414038 0.99199998 -0.77143228
2.4661679 1.016 -0.76774758
2.5112813 1.007 -0.77015638
2.5371611 1.015 -0.77284604
2.4623499 1.039 -0.76619154
2.5022302 1.025 -0.76987261
2.5211806 1.034 -0.77157164
2.490068 1.043 -0.77015418
2.5109982 1.054 -0.77213627
2.454572 1.061 -0.76406944
2.4738045 1.079 -0.77085966
2.4868152 1.063 -0.7717095
2.5037856 1.076 -0.77312547
2.5496063 1.0675 -0.77058458
2.4527335 1.084 -0.76279646
2.4685717 1.098 -0.77213186
2.4955828 1.098 -0.77397311
2.5450101 1.0885 -0.77093768
2.4421265 1.107 -0.7663309
2.4844108 1.117 -0.77439624
2.5385048 1.1085 -0.77051276
2.4704101 1.135 -0.7734049
2.5320697 1.124 -0.77312839
2.5459292 1.1336666 -0.77039564
2.4554195 1.153 -0.77227193
2.5118465 1.159 -0.77326769
2.5249989 1.1476666 -0.77077067
2.536454 1.1569999 -0.77072465
2.4240246 1.163 -0.76576334
2.5030079 1.1755 -0.77149904
2.5262718 1.1735001 -0.77128935
2.4936032 1.1950001 -0.7736901
2.4979875 1.182 -0.77128637
2.4863906 1.2130001 -0.7746793
2.5293829 1.2 -0.77072394
2.4489145 1.2359999 -0.7683115
2.4705517 1.226 -0.77241492
2.5272617 1.221 -0.77143085
2.52811 1.244 -0.77256227
2.5102913 1.278 -0.77001488
2.5192006 1.262 -0.77128857
2.5061898 1.298 -0.77043867
2.4991188 1.316 -0.77043796
2.5674253 1.304 -0.77313203
2.5542729 1.323 -0.7732721
2.4763503 1.344 -0.76718295
2.5460706 1.344 -0.77411979
2.4425511 1.374 -0.7633611
2.4666629 1.369 -0.76781833
2.5300901 1.3609999 -0.77284533
2.4443896 1.399 -0.76463413
2.5228775 1.382 -0.77383459
2.5146749 1.402 -0.77468222
2.5044925 1.4220001 -0.77524686
2.6466916 -1.2265 -0.77688789
2.6842382 -1.226 -0.78276068
2.6597722 -1.22 -0.7843138
2.6952691 -1.206 -0.78332752
2.6524189 -1.199 -0.77922189
2.6699545 -1.198 -0.78374916
2.7006431 -1.183 -0.78106534
2.7555151 -1.181 -0.77880824
2.6320546 -1.164 -0.77328008
2.6889048 -1.179 -0.78544819
2.7156339 -1.165 -0.78219825
2.6631665 -1.152 -0.78176862
2.6990871 -1.156 -0.78488356
2.7258162 -1.1440001 -0.78163362
2.7515554 -1.151 -0.77824217
2.6573684 -1.125 -0.77992952
2.7094111 -1.133 -0.78332895
2.7359986 -1.123 -0.78106898
2.7456157 -1.122 -0.77739304
2.6661363 -1.103 -0.78219318
2.721432 -1.1109999 -0.78403735
2.7519791 -1.105 -0.78234339
2.6242054 -1.097 -0.77872407
2.6499438 -1.0985 -0.77886808
2.6647224 -1.096 -0.77795035
2.6814101 -1.092 -0.77781063
2.7036841 -1.0845001 -0.77745944
2.7326043 -1.089 -0.78361422
2.7444839 -1.094 -0.7782414
2.7601814 -1.0829999 -0.78149569
2.6613281 -1.076 -0.78049558
2.7275138 -1.075 -0.77682549
2.7489386 -1.068 -0.78241384
2.7723439 -1.062 -0.78121418
2.6603382 -1.05 -0.78035408
2.7559388 -1.043 -0.78290951
2.6198213 -1.03 -0.77759218
2.6594899 -1.024 -0.77922261
2.739393 -1.038 -0.77852374
2.6283772 -1.002 -0.77780521
2.7354333 -1.0089999 -0.77795762
2.7661211 -1.0190001 -0.78234482
2.5924566 -0.99800003 -0.77469027
2.6084371 -0.99199998 -0.77596462
2.624064 -0.98300004 -0.77617842
2.6575098 -0.99800003 -0.77893955
2.7304835 -0.98100001 -0.77724999
2.7772934 -0.99599999 -0.78192174
2.6334684 -0.977 -0.77752292
2.6439807 -0.96700001 -0.77700543
2.645277 -0.94774997 -0.77794832
2.6648641 -0.94700003 -0.77696043
2.7331703 -0.95499998 -0.77965444
2.6463377 -0.92449999 -0.77936268
2.6720767 -0.93400002 -0.77597123
2.6782992 -0.921 -0.77484047
2.7263823 -0.92500001 -0.7776739
2.6497321 -0.91900003 -0.77681744
2.6562369 -0.90600002 -0.78077793
2.6893301 -0.90899998 -0.77540731
2.6484592 -0.89166665 -0.77629876
2.6654296 -0.884 -0.78007179
2.6927247 -0.89399999 -0.77286208
2.7037554 -0.88099998 -0.77342886
2.7212911 -0.89700001 -0.77795619
2.647752 -0.86799997 -0.77653438
2.6866426 -0.86300004 -0.78007394
2.7113919 -0.86750001 -0.77654099
2.7283623 -0.87400001 -0.77795696
2.7405243 -0.87699997 -0.77767533
2.6502976 -0.85100001 -0.77639323
2.6667731 -0.847 -0.77773845
2.6861475 -0.8495 -0.78000319
2.7123818 -0.84200001 -0.7766825
2.7208672 -0.852 -0.77385491
2.6114068 -0.83399999 -0.77638924
2.6285186 -0.82850003 -0.77681524
2.6478229 -0.83475006 -0.77780724
2.6599145 -0.83500004 -0.77625281
2.6871612 -0.82666665 -0.7788012
2.6992295 -0.824 -0.77682257
2.6247709 -0.81200004 -0.77829981
2.6476107 -0.81800002 -0.77752435
2.6590662 -0.81599998 -0.77512139
2.7083511 -0.81650001 -0.77661133
2.7305543 -0.8125 -0.77675503
2.6446407 -0.792 -0.77709979
2.6620357 -0.79400003 -0.7755459
2.7026236 -0.79250002 -0.77781284
2.7495754 -0.79000002 -0.77795911
2.6436508 -0.76700002 -0.77695823
2.6641572 -0.77200001 -0.77483904
2.7177553 -0.778 -0.7814914
2.7420802 -0.77199996 -0.77739269
2.5955677 -0.74199998 -0.77412486
2.6700969 -0.75 -0.77568817
2.6993711 -0.75999999 -0.77583265
2.7326047 -0.75099999 -0.77890015
2.5988207 -0.72500002 -0.7725696
2.6357315 -0.73900002 -0.7758261
2.6720767 -0.727 -0.77597123
2.7002194 -0.73500001 -0.77696407
2.7328169 -0.73150003 -0.77859378
2.6125383 -0.70999998 -0.77554083
2.6405394 -0.71600002 -0.77752358
2.6760364 -0.70499998 -0.7765373
2.6990881 -0.70899999 -0.77781248
2.7338774 -0.7105 -0.77824032
2.7430696 -0.71200001 -0.7810697
2.6099932 -0.69099998 -0.77214646
2.6337516 -0.68900001 -0.77554303
2.6750464 -0.68199998 -0.77639574
2.6951282 -0.68300003 -0.77724642
2.7304835 -0.69 -0.77724999
2.7531104 -0.69 -0.78149498
2.6256907 -0.676 -0.77540076
2.6365798 -0.66500002 -0.77695751
2.7289987 -0.66850001 -0.77703774
2.7613132 -0.667 -0.78064734
2.6249835 -0.65700001 -0.77327937
2.6845922 -0.65799999 -0.77675033
2.7334533 -0.648 -0.77767456
2.7693741 -0.64499998 -0.78078955
2.6251252 -0.63700002 -0.77228945
2.637428 -0.63999999 -0.77808899
2.6831076 -0.63349998 -0.77653807
2.7334533 -0.63300002 -0.77767456
2.6323373 -0.61650002 -0.77483577
2.6845214 -0.60899997 -0.77724528
2.7365646 -0.61799997 -0.77710921
2.7375546 -0.60299999 -0.77725077
2.6285193 -0.59299999 -0.77327973
2.6763196 -0.588 -0.77455747
2.6849456 -0.58099997 -0.77781099
2.7434943 -0.588 -0.77809989
2.6083663 -0.56999999 -0.77645963
2.627105 -0.57099998 -0.77257252
2.6763196 -0.56400001 -0.77455747
2.7474539 -0.57300001 -0.77866596
2.6279533 -0.55200005 -0.77370393
2.6725013 -0.54000002 -0.77300143
2.6780162 -0.55500001 -0.77682036
2.7505653 -0.55699998 -0.77810061
2.6313472 -0.53033334 -0.77822977
2.6474698 -0.52100003 -0.77144319
2.6722183 -0.52899998 -0.77498132
2.6205993 -0.51300001 -0.7756831
2.6443579 -0.505 -0.77672261
2.6741979 -0.51100004 -0.77526432
2.6196094 -0.48800001 -0.7755416
2.6494493 -0.48433337 -0.77644032
2.6782992 -0.49399999 -0.77484047
2.6156495 -0.463 -0.77497548
2.6683052 -0.47366667 -0.77644223
2.6465502 -0.45950001 -0.77434224
2.668329 -0.454 -0.77745581
2.6792893 -0.44600001 -0.77498204
2.6136699 -0.43900001 -0.77469242
2.645066 -0.43700001 -0.76705891
2.6655712 -0.43099999 -0.77672482
2.679713 -0.433 -0.77908325
2.6116898 -0.414 -0.77440935
2.6261852 -0.41149998 -0.77900708
2.658689 -0.4136667 -0.77540416
2.6838143 -0.41299999 -0.7786594
2.6145182 -0.391 -0.77582389
2.633327 -0.38600001 -0.77851284
2.6641574 -0.39324999 -0.77483904
2.6870673 -0.39300001 -0.77710414
2.6143765 -0.36700001 -0.77681381
2.6422365 -0.36899999 -0.77978653
2.6639216 -0.37333333 -0.77413189
2.6990881 -0.373 -0.77781248
2.6075885 -0.34200001 -0.7748332
2.6271043 -0.35499999 -0.77964354
2.6507218 -0.35500002 -0.77695894
2.6695313 -0.35133335 -0.77493387
2.6983809 -0.352 -0.77569109
2.6340337 -0.33399999 -0.78063422
2.6527019 -0.33399999 -0.777242
2.6673157 -0.32833335 -0.77394366
2.602639 -0.31799999 -0.77412564
2.6468565 -0.30766666 -0.77337587
2.6610932 -0.30933332 -0.77507442
2.5976894 -0.29300001 -0.77341801
2.6497324 -0.2895 -0.77328193
2.6611164 -0.292 -0.77844501
2.6006591 -0.27000001 -0.77384257
2.6439342 -0.27249998 -0.77144289
2.6630259 -0.27225 -0.77568746
2.5957093 -0.24600001 -0.77313495
2.6532671 -0.24699999 -0.78035337
2.6666081 -0.252 -0.77653635
2.5957093 -0.222 -0.77313495
2.6553886 -0.22499999 -0.77964646
2.669673 -0.23100001 -0.77158695
2.6818817 -0.23366666 -0.77804637
2.6527019 -0.21799999 -0.777242
2.6662784 -0.208 -0.7764892
2.6846631 -0.211 -0.77625537
2.5947194 -0.199 -0.77299339
2.6488836 -0.19499999 -0.77568603
2.6652882 -0.18499999 -0.77634764
2.6898954 -0.2 -0.77851862
2.5927398 -0.175 -0.77271038
2.640964 -0.17200001 -0.77455384
2.6746218 -0.169 -0.7793656
2.6864312 -0.18000001 -0.77448779
2.5917497 -0.15099999 -0.77256882
2.6053257 -0.15899999 -0.77653003
2.6467621 -0.15000001 -0.77639288
2.6643929 -0.15466666 -0.77554613
2.6855829 -0.1585 -0.77335632
2.5897698 -0.12800001 -0.77228582
2.609427 -0.139 -0.77610618
2.6399741 -0.127 -0.77441227
2.6644402 -0.13166668 -0.77521622
2.6818352 -0.134 -0.77130532
2.7031891 -0.14 -0.77738863
2.5868001 -0.104 -0.77186126
2.6095686 -0.117 -0.77511626
2.6321962 -0.104 -0.77229011
2.6647227 -0.109 -0.77559328
2.6828253 -0.112 -0.77144688
2.7082803 -0.119 -0.77710629
2.5876484 -0.081 -0.77299267
2.6248422 -0.089500003 -0.77426928
2.6633089 -0.089499995 -0.77370757
2.6818352 -0.089000002 -0.77130532
2.7094119 -0.098999999 -0.77625793
2.6225793 -0.075000003 -0.77596617
2.662837 -0.071000002 -0.77465034
2.6828253 -0.066 -0.77144688
2.7183213 -0.078000002 -0.77753162
2.5770423 -0.057 -0.76945609
2.623004 -0.056500003 -0.77299631
2.6579344 -0.052999999 -0.7759698
2.679997 -0.043000001 -0.77003235
2.7184629 -0.057 -0.77654171
2.5818503 -0.035 -0.77115363
2.6245594 -0.034500003 -0.77271366
2.651005 -0.037 -0.77497911
2.6604805 -0.032499999 -0.77229309
2.7283623 -0.035999998 -0.77795696
2.5740724 -0.012 -0.76903152
2.6245594 -0.013 -0.77271366
2.6508634 -0.015 -0.77596903
2.6624603 -0.0089999996 -0.77257609
2.6790068 -0.02 -0.76989079
2.5720925 0.0099999998 -0.76874846
2.6270342 0.0079999994 -0.77306747
2.6536918 0.0049999999 -0.77738351
2.5798705 0.033 -0.77087057
2.5681329 0.056000002 -0.76818234
2.5711026 0.079000004 -0.76860696
2.6017914 0.07 -0.76592308
2.6066465 0.092666663 -0.76729059
2.5749209 0.102 -0.77016294
2.6221552 0.11466666 -0.77186483
2.573931 0.125 -0.77002144
2.6234281 0.131 -0.77238357
2.5749209 0.148 -0.77016294
2.5914667 0.148 -0.77454871
2.6142359 0.156 -0.7707327
2.6222963 0.153 -0.777946
2.6467621 0.1455 -0.77639288
2.669956 0.152 -0.76960707
2.6900377 0.142 -0.77045763
2.5681329 0.17 -0.76818234
2.5924566 0.169 -0.77469027
2.6133161 0.17550001 -0.77363169
2.6350245 0.163 -0.77370465
2.647752 0.171 -0.77653438
2.6709459 0.176 -0.76974857
2.6881993 0.16500001 -0.76918465
2.5719509 0.193 -0.76973838
2.5904768 0.191 -0.77440721
2.6024976 0.193 -0.77511555
2.6170642 0.199 -0.77214718
2.6417418 0.18900001 -0.77618021
2.6911693 0.189 -0.76960921
2.5691226 0.21600001 -0.7683239
2.5924566 0.212 -0.77469027
2.6058211 0.21599999 -0.77306527
2.6340346 0.206 -0.77356315
2.6377113 0.214 -0.7761091
2.6729259 0.20100001 -0.77003163
2.698947 0.213 -0.77173132
2.5360303 0.227 -0.76662338
2.5691226 0.23800001 -0.7683239
2.5944364 0.234 -0.77497327
2.6313474 0.23199999 -0.77469426
2.6749055 0.22499999 -0.77031463
2.6971087 0.237 -0.7704584
2.5925982 0.25600001 -0.7737003
2.6121144 0.23999999 -0.77143955
2.6312766 0.25400001 -0.77518916
2.6642995 0.248 -0.76677805
2.5691226 0.26100001 -0.7683239
2.6027803 0.26899999 -0.77313566
2.6262562 0.2755 -0.77497655
2.6633093 0.273 -0.76663649
2.6990886 0.26100001 -0.7707414
2.7485855 0.26800001 -0.77781761
2.5381517 0.29499999 -0.76591653
2.5699713 0.28400001 -0.76945537
2.6071649 0.28099999 -0.77073193
2.6278119 0.29499999 -0.77469391
2.6750472 0.29800001 -0.76932472
2.7395346 0.28799999 -0.77753383
2.5469196 0.31900001 -0.76818019
2.5679913 0.30599999 -0.76917231
2.5924566 0.30000001 -0.77469027
2.6032052 0.301 -0.77016586
2.621165 0.30849999 -0.77525884
2.7364233 0.30899999 -0.77809918
2.5438089 0.32499999 -0.76167446
2.5904768 0.322 -0.77440721
2.6032052 0.32100001 -0.77016586
2.6191142 0.32999998 -0.77547079
2.6750472 0.32300001 -0.76932472
2.7293522 0.329 -0.77809846
2.5440915 0.34200001 -0.76676565
2.5583749 0.34900001 -0.76577717
2.589982 0.3425 -0.77080089
2.6104169 0.34200001 -0.77624768
2.679997 0.34799999 -0.77003235
2.7164829 0.34799999 -0.77625865
2.5442328 0.36500001 -0.76577574
2.5621932 0.37200001 -0.76733321
2.5923154 0.3635 -0.77214462
2.6013658 0.36199999 -0.77596396
2.6167812 0.361 -0.77412707
2.6801386 0.373 -0.76904243
2.707432 0.36700001 -0.77597487
2.5520108 0.389 -0.76789784
2.5670013 0.39500001 -0.76903075
2.5931642 0.38 -0.76974058
2.6108415 0.38299999 -0.77327794
2.6840982 0.398 -0.7696085
2.6993711 0.38600001 -0.77583265
2.5634658 0.41549999 -0.76903039
2.5920329 0.4095 -0.77058899
2.6029222 0.40400001 -0.77214575
2.6923001 0.40599999 -0.77583188
2.5551221 0.43700001 -0.76733249
2.5909014 0.43799999 -0.77143741
2.6095686 0.428 -0.77511626
2.6816936 0.4235 -0.77229524
2.5660112 0.44 -0.76888925
2.5859516 0.45699999 -0.77072978
2.5986791 0.44800001 -0.77355951
2.6751878 0.44299999 -0.77540582
2.6832497 0.447 -0.76847708
2.5532837 0.46000001 -0.76605952
2.5650215 0.46200001 -0.76874769
2.5877192 0.4725 -0.77249771
2.6650765 0.46950001 -0.77547556
2.6822598 0.472 -0.76833552
2.5663414 0.48733333 -0.76893646
2.580719 0.49000001 -0.77200204
2.6539748 0.49700001 -0.77540368
2.6852295 0.49700001 -0.76876009
2.5563951 0.50700003 -0.76549411
2.5683446 0.50849998 -0.77023298
2.5776076 0.51200002 -0.77256739
2.6411057 0.51300001 -0.77356386
2.7307665 0.50800002 -0.77527016
2.566247 0.52966666 -0.76959634
2.6378527 0.53100002 -0.77511919
2.7218571 0.53100002 -0.77399647
2.5620513 0.55000001 -0.76832312
2.6327617 0.54900002 -0.77540153
2.7246854 0.55500001 -0.77541095
2.5350404 0.56800002 -0.76648188
2.5558288 0.56199998 -0.76945388
2.5589402 0.57099998 -0.76888847
2.6179125 0.56400001 -0.77327865
2.7166245 0.57800001 -0.77526867
2.5479803 0.59200001 -0.76782674
2.5654459 0.57999998 -0.76577795
2.6107707 0.58899999 -0.7737729
2.7159176 0.58700001 -0.77314734
2.5488994 0.61500001 -0.76846319
2.5684159 0.60500002 -0.76620251
2.5978308 0.61199999 -0.77242804
2.7068667 0.60450006 -0.77286351
2.5518692 0.63300002 -0.76888776
2.5655875 0.62900001 -0.76478797
2.5907598 0.62800002 -0.77242732
2.6969674 0.63 -0.77144831
2.7016339 0.62300003 -0.77413577
2.5424647 0.64699996 -0.76754332
2.5743554 0.65499997 -0.76705164
2.5842545 0.65100002 -0.7720024
2.6922295 0.64900005 -0.77279133
2.6980987 0.64399999 -0.7705999
2.5449398 0.66500002 -0.76789713
2.5746377 0.67299998 -0.77214283
2.6856182 0.66949999 -0.77134103
2.5469196 0.69 -0.76818019
2.573648 0.68400002 -0.77200133
2.5784566 0.68000001 -0.76662779
2.6741276 0.6925 -0.77222377
2.6778755 0.69199997 -0.77073926
2.5440915 0.713 -0.76676565
2.5804367 0.70499998 -0.76691085
2.6699557 0.71233338 -0.77196407
2.5469196 0.73699999 -0.76818019
2.581568 0.73000002 -0.76606244
2.6498744 0.73400003 -0.76875645
2.6598678 0.73099995 -0.77186877
2.4793217 0.74699998 -0.75346541
2.5001104 0.74199998 -0.75643736
2.5221713 0.75199997 -0.76464206
2.540273 0.759 -0.76520962
2.584538 0.755 -0.766487
2.6268227 0.759 -0.76748133
2.646904 0.75400001 -0.77068889
2.5769012 0.778 -0.76337492
2.606317 0.76899999 -0.76252943
2.6232872 0.773 -0.76748097
2.5582335 0.83499998 -0.76676714
2.5459301 0.84666663 -0.76332456
2.5847497 0.86800003 -0.76853764
2.6015081 0.861 -0.76790291
2.6732082 0.87599999 -0.77512282
2.6961191 0.87800002 -0.7703169
2.5508795 0.88200003 -0.76874626
2.570961 0.89499998 -0.76959687
2.5920327 0.88599998 -0.77058893
2.5976901 0.88499999 -0.76634693
2.6476114 0.89099997 -0.77045327
2.6601982 0.89399999 -0.7672019
2.5470612 0.90399998 -0.76719022
2.5599301 0.91299999 -0.76902997
2.5838304 0.90799999 -0.77143669
2.6026397 0.912 -0.7670545
2.6477528 0.91299999 -0.76946336
2.6763201 0.91500002 -0.76748639
2.5431013 0.92699999 -0.76662409
2.5687449 0.92899996 -0.77096367
2.6027811 0.93800002 -0.76606458
2.6314185 0.93599999 -0.77066374
2.6498744 0.93133336 -0.76875645
2.6669862 0.92299998 -0.7691825
2.5479095 0.95200002 -0.76832169
2.5698295 0.94700003 -0.77044523
2.5849264 0.95275003 -0.7708357
2.6042657 0.94749999 -0.76981241
2.6213069 0.94800001 -0.77073342
2.6419547 0.949 -0.76762426
2.5488994 0.977 -0.76846319
2.5950024 0.963 -0.77101356
2.604089 0.96899998 -0.76928204
2.6290855 0.96399999 -0.76578444
2.5459297 0.99900001 -0.76803863
2.5959923 0.991 -0.77115506
2.6097107 0.99199998 -0.76705521
2.6270704 0.98500001 -0.76928443
2.6428032 0.99299997 -0.76875567
2.6577938 0.99800003 -0.76988864
2.5849617 1.0089999 -0.77058828
2.6131754 1.0175 -0.76755059
2.6227214 1.001 -0.76790512
2.6714408 1.0015 -0.76981932
2.6891892 1.005 -0.76932615
2.5419698 1.021 -0.76747257
2.5747793 1.029 -0.77115285
2.6075895 1.0319999 -0.76776218
2.539 1.043 -0.767048
2.5657282 1.048 -0.77086908
2.6066704 1.046 -0.76712567
2.7060182 1.054 -0.77173209
2.5897703 1.069 -0.76875031
2.6128221 1.0700001 -0.76648986
2.6948459 1.076 -0.77215517
2.5771837 1.089 -0.76846611
2.6157918 1.097 -0.76691443
2.6768856 1.095 -0.7705977
2.5640316 1.108 -0.76860619
2.6686831 1.117 -0.77144539
2.6217315 1.126 -0.76776361
2.6207416 1.152 -0.76762211
2.6614704 1.14 -0.77243459
2.6453483 1.16 -0.77215004
2.6309943 1.181 -0.77009797
2.6249132 1.204 -0.77023882
2.6139529 1.223 -0.77271259
2.630641 1.235 -0.76903731
2.6008005 1.243 -0.77285266
2.58482 1.261 -0.77157819
2.6286609 1.26 -0.76875424
2.6842396 1.267 -0.76861858
2.5746377 1.2819999 -0.77214283
2.6276712 1.286 -0.76861274
2.6763201 1.2869999 -0.76748639
2.6296508 1.314 -0.76889575
2.673209 1.3099999 -0.76805174
2.6720774 1.332 -0.76890016
2.6286609 1.34 -0.76875424
2.6640165 1.351 -0.76875794
2.6296508 1.3660001 -0.76889575
2.6599152 1.372 -0.76918173
2.6256912 1.391 -0.76832968
2.6510057 1.3890001 -0.76790804
2.6276712 1.418 -0.76861274
2.6477528 1.409 -0.76946336
2.6388433 1.426 -0.76818961
2.6291561 1.4435 -0.76882505
2.6920176 1.442 -0.77074069
2.6219199 1.4683334 -0.76880068
2.6848049 1.465 -0.77172989
2.6196101 1.4910001 -0.76847047
2.6746225 1.485 -0.77229452
2.6576521 1.502 -0.77087855
2.8388119 -1.289 -0.78263521
2.7625861 -1.268 -0.77880895
2.8241041 -1.279 -0.77952242
2.8499839 -1.265 -0.78221208
2.8300438 -1.255 -0.78037155
2.8747325 -1.247 -0.78575015
2.7606061 -1.239 -0.77852589
2.8320239 -1.229 -0.78065461
2.7526867 -1.2079999 -0.77739376
2.8752985 -1.219 -0.78179044
2.8242457 -1.199 -0.77853245
2.8904305 -1.196 -0.78193337
2.8222659 -1.171 -0.77824944
2.9006131 -1.1720001 -0.78136879
2.8282056 -1.147 -0.77909857
2.9175835 -1.15 -0.7827847
2.8252358 -1.119 -0.77867401
2.8184478 -1.089 -0.7766934
2.7408075 -1.0650001 -0.77569544
2.8194377 -1.062 -0.77683491
2.7529697 -1.058 -0.77541387
2.7712131 -1.046 -0.77499145
2.7843647 -1.041 -0.78192246
2.789315 -1.034 -0.77555901
2.8084774 -1.0295 -0.77577311
2.7917187 -1.018 -0.77994335
2.8145585 -1.011 -0.77563232
2.8218422 -1.002 -0.77414817
2.8076992 -0.99800003 -0.78121775
2.8330145 -0.991 -0.77372503
2.7863445 -0.97299999 -0.78220552
2.8142047 -0.97750002 -0.77810717
2.8382471 -0.97600001 -0.77245277
2.8532376 -0.96499997 -0.77358568
2.795537 -0.949 -0.78149939
