# .PCD v0.7 - Point Cloud Data file format
VERSION 0.7
FIELDS x y z rgb
SIZE 4 4 4 4
TYPE F F F U
COUNT 1 1 1 1
WIDTH 1100
HEIGHT 1
VIEWPOINT 0 0 0 1 0 0 0
POINTS 1100
DATA ascii
5.758595 -3.0146523 -0.56820625 1114636288
5.7818909 -3.0066137 -0.57746321 1113849856
5.8042312 -3.0005763 -0.58643353 1113849856
5.929759 -3.0024054 -0.62731671 1114898432
5.5564227 -2.9859617 -0.49411136 1114112000
5.5720744 -2.9919326 -0.50106525 1114374144
5.5880222 -2.9979076 -0.50706387 1114112000
5.7872586 -2.9876156 -0.57694894 1114636288
5.8354654 -2.9965315 -0.59711319 1113849856
5.8597164 -2.9864917 -0.60665715 1114898432
5.7935815 -2.9686162 -0.57672989 1114374144
5.8880844 -2.9764507 -0.61642605 1114374144
5.9275527 -2.9704041 -0.62754804 1114374144
5.966361 -2.9693627 -0.63744038 1114898432
5.7967429 -2.9476168 -0.57657212 1114636288
6.0115619 -2.940309 -0.65023738 1115684864
6.0361776 -2.9572597 -0.66209996 1114112000
5.8100491 -2.930613 -0.57747227 1114898432
5.8189435 -2.9086061 -0.57908165 1114898432
6.0548515 -2.9092577 -0.66243559 1114898432
6.0625648 -2.9152346 -0.66798353 1113587712
5.8237205 -2.8846002 -0.58045715 1115684864
5.8487873 -2.8685853 -0.58394819 1115815936
6.0903854 -2.8742077 -0.67431414 1114898432
6.143342 -2.8441527 -0.68740982 1115422720
6.1143842 -2.8301859 -0.67945135 1114112000
6.190454 -2.8120968 -0.70078468 1115684864
6.140111 -2.7861664 -0.68407601 1114374144
6.2296271 -2.7750466 -0.71273249 1115947008
6.1699548 -2.7441456 -0.68893415 1114374144
6.2745328 -2.7399888 -0.7264598 1115815936
6.3095889 -2.6999397 -0.73816997 1116078080
6.1906099 -2.6971283 -0.69302589 1114898432
6.3614779 -2.6658771 -0.75301218 1114636288
6.3865294 -2.6688056 -0.77018404 1113849856
6.2112641 -2.6491106 -0.69711328 1114898432
6.410605 -2.6312988 -0.77170914 1114636288
6.4514294 -2.6037357 -0.78682339 1114374144
6.457612 -2.5907626 -0.78030622 1115422720
6.4087992 -2.560782 -0.77556646 1114636288
6.4820032 -2.5676963 -0.7961188 1114374144
6.3768349 -2.5388455 -0.76036608 1114374144
6.393147 -2.5508111 -0.7685957 1114374144
6.475245 -2.5407183 -0.7907781 1112539136
6.3611827 -2.5268745 -0.75338697 1114636288
6.4858947 -2.5206785 -0.8002646 1112801280
6.7190223 -2.5183778 -0.8722806 1113325568
6.3390679 -2.4999294 -0.74016196 1114636288
6.3486919 -2.5129039 -0.74632967 1114898432
6.6985927 -2.5054131 -0.86382151 1113587712
6.3259869 -2.4829509 -0.73500305 1115160576
6.262198 -2.4660511 -0.71103793 1114112000
6.2934322 -2.4670062 -0.72173852 1114898432
6.322278 -2.4669647 -0.73169696 1115160576
6.3743496 -2.4698975 -0.74779695 1117650944
6.402422 -2.4648523 -0.75854242 1120141312
6.7317381 -2.4683659 -0.87495363 1114898432
6.7472506 -2.4673636 -0.87555557 1113849856
6.3090143 -2.4489906 -0.72543073 1114374144
6.4251275 -2.4558058 -0.76970601 1121058816
6.4570217 -2.4477558 -0.78161967 1120927744
6.5380793 -2.4506207 -0.8140012 1117913088
6.4705381 -2.4317122 -0.7920084 1121714176
6.643558 -2.4305327 -0.83499229 1111228416
6.7011642 -2.418406 -0.86529905 1110966272
6.7731171 -2.4323175 -0.88654077 1115422720
6.5676975 -2.4005828 -0.82294285 1110966272
6.7580552 -2.4083545 -0.87760055 1114112000
6.8202291 -2.3972611 -0.89990294 1115684864
6.6406841 -2.3855083 -0.84071946 1107558400
6.6823506 -2.3814349 -0.85828543 1109393408
6.7084579 -2.3954623 -0.85175699 1113063424
6.7122641 -2.3944006 -0.86653477 1111228416
6.7221494 -2.3668859 -0.86999714 1111228416
6.8644743 -2.360209 -0.91237122 1115422720
6.6874385 -2.3394899 -0.845029 1108606976
6.7421083 -2.3443801 -0.87135965 1111490560
6.7676253 -2.3563993 -0.86673379 1114112000
6.7731953 -2.3513334 -0.88256317 1113849856
6.75703 -2.3173699 -0.87376368 1112014848
6.9065137 -2.3221548 -0.92520052 1115684864
6.803524 -2.3038404 -0.88074523 1114898432
6.7106643 -2.2944648 -0.85096979 1109655552
6.7697463 -2.288358 -0.87652457 1112276992
6.9545813 -2.2850976 -0.93884969 1115684864
6.8002505 -2.2643318 -0.88270867 1113063424
6.8504539 -2.263289 -0.89298165 1115684864
6.8237014 -2.2433236 -0.88463283 1114112000
6.9947095 -2.243046 -0.95107186 1115815936
6.8180385 -2.2343178 -0.88598561 1112014848
6.8972702 -2.2182288 -0.9072575 1116078080
6.8374429 -2.2042975 -0.89080864 1113587712
7.0427771 -2.2029889 -0.96470839 1115815936
6.8486123 -2.170279 -0.89516407 1113063424
6.951365 -2.175168 -0.92169714 1116078080
6.879777 -2.1412477 -0.90257782 1113587712
7.1446438 -2.1228669 -0.9937526 1113849856
6.7937174 -2.1023724 -0.8726871 1112801280
6.8839641 -2.1032341 -0.90580595 1113849856
7.1917553 -2.0798109 -1.0070814 1116995584
6.9252729 -2.0751984 -0.9142648 1114112000
6.9469533 -2.0401664 -0.92186332 1114374144
7.2204885 -2.0297608 -1.0188894 1117126656
7.2504725 -1.980714 -1.0300415 1115422720
7.2467203 -1.945706 -1.0318758 1116078080
7.2501774 -1.9177105 -1.0307337 1116340224
7.2753839 -1.929669 -1.0406647 1111490560
7.2637787 -1.8917106 -1.0306407 1115947008
7.279501 -1.8926684 -1.0407355 1112801280
7.315217 -1.8816137 -1.053817 1107296256
7.2710571 -1.8617103 -1.0306708 1115815936
7.3693123 -1.836553 -1.0682485 1101004800
7.2786307 -1.8317138 -1.0297453 1115684864
7.3022914 -1.8326658 -1.0412461 1112276992
7.3381476 -1.8265846 -1.0606717 1104674816
7.2837033 -1.7987119 -1.030128 1115422720
7.4170837 -1.7884917 -1.0828071 1096810496
7.3071542 -1.7697039 -1.0320189 1115947008
7.3260374 -1.7716619 -1.0420477 1112539136
7.3666711 -1.7665745 -1.0629535 1104150528
7.4873514 -1.7454233 -1.0991032 1093664768
7.310976 -1.7346991 -1.0330534 1115160576
7.5655422 -1.7332919 -1.1305366 1093664768
7.346622 -1.7096577 -1.0429151 1112276992
7.3761559 -1.7015759 -1.0624723 1103626240
7.4472928 -1.7014623 -1.0896832 1096810496
7.5351238 -1.6953621 -1.1136534 1093664768
7.6389718 -1.6852238 -1.146742 1096810496
7.4432459 -1.6704502 -1.0924901 1096810496
8.0595045 -1.6736548 -1.282899 1114112000
7.4075451 -1.6415622 -1.0656396 1102053376
7.4720645 -1.6434439 -1.0939542 1095761920
7.6073022 -1.6492913 -1.1305276 1095761920
7.4861708 -1.6264085 -1.1024278 1094713344
7.709239 -1.6351553 -1.163009 1099956224
8.110734 -1.615598 -1.2963907 1114374144
7.701386 -1.6082051 -1.1510504 1099431936
7.5082312 -1.586424 -1.09861 1094713344
7.523068 -1.5803699 -1.1115417 1093664768
7.7896514 -1.5860826 -1.1803212 1103626240
7.9553618 -1.5837899 -1.2503482 1114112000
8.0753822 -1.5896438 -1.2853605 1114636288
8.1654186 -1.5575453 -1.3088567 1113849856
7.5361648 -1.5274059 -1.1028069 1094713344
7.5681992 -1.5343295 -1.1211061 1093664768
7.8332367 -1.5290356 -1.1914556 1105199104
7.9819746 -1.5187825 -1.2520188 1113587712
8.1058168 -1.5226313 -1.2882031 1114898432
8.1359396 -1.4985576 -1.3057824 1113587712
8.2109146 -1.4964958 -1.3205645 1113849856
7.5955415 -1.4833034 -1.1272472 1093664768
7.5580697 -1.4673913 -1.106184 1093664768
8.0016031 -1.4507796 -1.252566 1114374144
8.1292677 -1.4536235 -1.2899269 1115160576
8.1887846 -1.4484943 -1.3208532 1113587712
8.2624388 -1.4364431 -1.3330923 1114374144
7.6327338 -1.434269 -1.1353931 1093664768
8.1244755 -1.4115733 -1.301877 1115160576
8.2425842 -1.4024296 -1.3362358 1114636288
7.6730876 -1.3842349 -1.1434652 1094713344
8.0190268 -1.3827752 -1.2534782 1114374144
8.1517639 -1.384617 -1.2913556 1115422720
8.1613712 -1.3675348 -1.310999 1115160576
8.305069 -1.3733972 -1.3439062 1114374144
8.2765455 -1.3414081 -1.3412399 1116209152
8.3014574 -1.3463628 -1.3520972 1113587712
8.2040024 -1.3224888 -1.3218883 1115160576
8.3568878 -1.3113484 -1.3554702 1114636288
8.2459717 -1.2754482 -1.3315185 1115160576
8.3584175 -1.2942985 -1.3673846 1113849856
8.3022718 -1.2733887 -1.3457644 1116340224
8.3959913 -1.2473117 -1.3641438 1114898432
8.4172907 -1.2412317 -1.3832586 1114112000
8.2863951 -1.2284008 -1.3427644 1115160576
8.4684334 -1.2231308 -1.4073571 1114636288
8.3292494 -1.2053719 -1.3496282 1116209152
8.3382139 -1.1803519 -1.3543866 1115160576
8.4742517 -1.1871674 -1.398538 1113849856
8.5018034 -1.1621015 -1.4142718 1114636288
8.3663721 -1.1373508 -1.3545336 1116209152
8.3706989 -1.1303104 -1.3642139 1115422720
8.5261412 -1.1301054 -1.4132842 1114112000
8.53613 -1.1000707 -1.4214782 1114636288
8.4241343 -1.0802549 -1.3773739 1115160576
8.5789843 -1.072042 -1.4283211 1114112000
8.7785864 -1.0707407 -1.5004503 1116209152
8.5796452 -1.037037 -1.4294257 1114636288
8.4756575 -1.029202 -1.3899391 1115160576
8.6457958 -1.0149693 -1.4455844 1114636288
8.809021 -0.99772817 -1.503268 1116340224
8.5141706 -0.97615707 -1.4005694 1115160576
8.6180878 -0.97400552 -1.4368528 1114898432
8.7106962 -0.95589924 -1.4622489 1114374144
8.8353386 -0.92471677 -1.5058606 1116209152
8.648592 -0.90797979 -1.4428614 1114636288
8.7695684 -0.89483255 -1.4780893 1114374144
8.8654776 -0.85070038 -1.5096297 1116209152
4.913722 -3.3838491 -0.28255561 1116471296
4.9244843 -3.3848178 -0.29007119 1117257728
4.940537 -3.3817728 -0.30077457 1117782016
4.8911643 -3.3663979 -0.27080357 1114636288
4.9015965 -3.3758693 -0.27772936 1115422720
4.8750696 -3.3499212 -0.2652387 1114112000
4.8645597 -3.3369348 -0.26193747 1113063424
5.2231293 -3.2164204 -0.38477519 1115815936
5.2403274 -3.1923985 -0.38998824 1115684864
5.2606864 -3.1683769 -0.39513141 1115684864
5.2851629 -3.1453543 -0.40050393 1115684864
5.307138 -3.1193261 -0.40718442 1115815936
5.3300686 -3.0932968 -0.41416022 1115815936
5.3520441 -3.0662687 -0.42083666 1114898432
5.3812976 -3.0412397 -0.42767677 1114898432
5.5089459 -3.0560269 -0.47868916 1113849856
5.5483441 -3.0329938 -0.48657867 1112539136
5.4090056 -3.0142043 -0.43612432 1115160576
5.4411254 -2.9891717 -0.44385004 1114636288
5.545548 -2.9799848 -0.48863313 1114374144
5.5693636 -2.9979668 -0.49292642 1112539136
5.4777269 -2.9641292 -0.45400691 1115160576
5.5257788 -2.9670146 -0.48142469 1113849856
5.6046453 -2.9699345 -0.50056976 1112801280
5.5088062 -2.949054 -0.47191921 1114112000
5.5146089 -2.9580336 -0.47688937 1114112000
5.5006289 -2.9327519 -0.46444035 1114636288
5.6288266 -2.9349082 -0.50684762 1112539136
5.4869862 -2.8991134 -0.45764273 1114636288
5.4933791 -2.9141004 -0.46072716 1114636288
5.5331426 -2.9030581 -0.47087267 1115160576
5.6593304 -2.9018822 -0.51299399 1113325568
5.4847102 -2.884125 -0.45478359 1114374144
5.4872117 -2.8701308 -0.45340475 1114112000
5.5719504 -2.877017 -0.48066047 1115160576
5.6844668 -2.8648543 -0.51955879 1113587712
5.4595037 -2.8491669 -0.44475663 1114898432
5.4857783 -2.8481326 -0.45287001 1114374144
5.520947 -2.8440919 -0.46267197 1114374144
5.6164908 -2.8529685 -0.49222773 1114374144
5.8615031 -2.8445735 -0.58672976 1115684864
5.541081 -2.8340528 -0.47199044 1114112000
5.5665827 -2.8250155 -0.48087811 1114112000
5.6461101 -2.8199306 -0.50124055 1115160576
5.7029157 -2.8238351 -0.52404052 1112539136
5.8761296 -2.8205593 -0.59010178 1115815936
5.5892181 -2.8129821 -0.48886788 1114374144
5.6277308 -2.8079367 -0.49969876 1113849856
5.6560993 -2.7948959 -0.5094555 1113587712
5.683372 -2.7898827 -0.5126273 1115160576
5.6844668 -2.7808552 -0.51920784 1114112000
5.7356257 -2.7888107 -0.52981353 1113063424
5.8885508 -2.7945433 -0.59383053 1115684864
5.7191582 -2.7688148 -0.52882886 1114112000
5.909205 -2.7715256 -0.5980224 1115684864
5.7473087 -2.7467852 -0.53586411 1113587712
5.9254479 -2.7445049 -0.60292774 1115815936
5.7720723 -2.7307382 -0.54711109 1114112000
5.9527903 -2.7214787 -0.60918587 1116209152
5.8099251 -2.715698 -0.55664968 1114636288
5.8402038 -2.693655 -0.56695908 1114636288
5.976016 -2.6954532 -0.61520612 1116209152
5.8647504 -2.6696188 -0.57548892 1114636288
5.9973311 -2.6664302 -0.62062359 1116209152
5.9016476 -2.6485803 -0.58470726 1114636288
6.0243788 -2.6394 -0.62782049 1115160576
5.9303102 -2.6235435 -0.59345824 1114374144
6.0482645 -2.6113696 -0.63508296 1115160576
6.2341247 -2.6020947 -0.7008397 1114636288
5.956768 -2.5955052 -0.60256195 1115160576
6.0794291 -2.5843382 -0.64250517 1115160576
5.9958711 -2.572468 -0.61140674 1115160576
6.2661748 -2.5580757 -0.70532459 1115422720
6.0264449 -2.5434289 -0.62073147 1114112000
6.1122088 -2.5563006 -0.65146887 1115422720
6.1449895 -2.5282629 -0.66043288 1115160576
6.0462141 -2.5093994 -0.62774354 1113849856
6.2830076 -2.5080628 -0.70822299 1115684864
6.084362 -2.4813633 -0.63627249 1114112000
6.1758585 -2.4972277 -0.66879356 1115160576
6.2105069 -2.4656658 -0.6835531 1115160576
6.2353754 -2.4650986 -0.69960701 1114636288
6.3090301 -2.4600475 -0.71187544 1114374144
6.1091251 -2.4438162 -0.64742959 1114636288
6.1326385 -2.4482663 -0.65942264 1114374144
6.1559343 -2.4542274 -0.66873825 1114898432
6.1760683 -2.4571884 -0.67811102 1114374144
6.0665736 -2.4233782 -0.63262767 1114898432
6.0860472 -2.4323442 -0.64077497 1115160576
6.2442851 -2.4361484 -0.68758583 1115947008
6.3000503 -2.4290111 -0.72048461 1114112000
6.0531273 -2.4154086 -0.62530023 1114636288
6.2818427 -2.4051049 -0.69801295 1115815936
6.3018913 -2.4130218 -0.71784657 1114636288
6.3290243 -2.4100351 -0.71470386 1114112000
6.3015261 -2.3940315 -0.71556121 1114636288
6.3067889 -2.3720531 -0.7102921 1114898432
6.3490186 -2.3580229 -0.71752405 1114636288
6.296679 -2.3510511 -0.71074414 1114636288
6.3509293 -2.3380206 -0.71803081 1115947008
6.3061633 -2.3320522 -0.710455 1114898432
6.4581485 -2.327843 -0.76053387 1120272384
6.3115311 -2.3090541 -0.70992404 1114898432
6.3932643 -2.3049707 -0.72992551 1116471296
6.3146925 -2.2850547 -0.70975375 1114898432
6.5103326 -2.2897847 -0.77440405 1121320960
6.2480373 -2.2701583 -0.68491161 1114112000
6.3279986 -2.2640507 -0.71063721 1114898432
6.2833881 -2.2561128 -0.69577473 1114374144
6.3152828 -2.2400632 -0.70765495 1114112000
6.5384054 -2.2427402 -0.78497392 1121320960
6.7500625 -2.2534318 -0.85878408 1110179840
6.3506341 -2.2240176 -0.71850985 1114112000
6.3907628 -2.2069659 -0.73083645 1114898432
6.7764502 -2.2074068 -0.86465114 1111228416
6.4219975 -2.1869214 -0.74144948 1115160576
6.5703001 -2.1966906 -0.79672891 1120272384
6.8481078 -2.1873145 -0.88670617 1114898432
6.4630809 -2.1678686 -0.75406283 1115947008
6.8076143 -2.1613758 -0.87199384 1112014848
6.4965215 -2.1458254 -0.76430231 1117126656
6.5952115 -2.1466458 -0.80735624 1115947008
6.538856 -2.1247754 -0.77624714 1119223808
6.8411245 -2.1223197 -0.8853237 1114898432
7.0003877 -2.1281097 -0.93559957 1115947008
6.6502619 -2.1065836 -0.82210356 1108082688
6.5640626 -2.0957344 -0.78600669 1118830592
6.6079431 -2.0776911 -0.79634851 1120010240
7.0516167 -2.0820527 -0.9491412 1116078080
6.5902243 -2.0666921 -0.79606158 1120010240
6.8537011 -2.0633345 -0.88163626 1115684864
6.8817039 -2.0713029 -0.88927448 1115160576
6.66819 -2.0545437 -0.83161157 1109655552
6.6106539 -2.0346575 -0.80433285 1119092736
6.7860198 -2.0324528 -0.85327035 1115947008
7.1047564 -2.0359933 -0.96327335 1115815936
6.669456 -2.0136034 -0.81717885 1113849856
6.8832493 -2.01531 -0.88742483 1115947008
6.9070659 -2.0152924 -0.89164293 1115422720
6.9860563 -2.0091293 -0.93067473 1114374144
6.7098799 -1.984556 -0.82849979 1113587712
6.8321762 -1.9863981 -0.86629152 1115947008
7.1588511 -1.9889327 -0.97769612 1116471296
6.9150043 -1.9612869 -0.8928234 1115160576
7.0178809 -1.9750929 -0.93931818 1114112000
6.7363372 -1.9495177 -0.83757424 1113849856
6.8786278 -1.9413474 -0.8783614 1115815936
7.0528669 -1.9400568 -0.94788766 1114636288
7.2069187 -1.9398754 -0.99129516 1117650944
6.7849946 -1.9214683 -0.84934992 1113849856
6.9375696 -1.9162669 -0.89751363 1114636288
7.0834413 -1.9030175 -0.95717889 1114636288
7.2482972 -1.8878268 -1.0028152 1117126656
7.1311436 -1.8699694 -0.96863872 1114636288
7.1677456 -1.8319269 -0.97874153 1114112000
7.2843089 -1.8337765 -1.014762 1117126656
7.203392 -1.7918856 -0.98854059 1114636288
7.3215714 -1.7797289 -1.0260485 1115947008
7.2498431 -1.7558347 -1.000648 1115422720
7.294384 -1.7167863 -1.0121527 1115947008
7.3391342 -1.720698 -1.0333214 1112801280
7.3319259 -1.7036854 -1.0362563 1115422720
7.3256183 -1.6737419 -1.0226694 1115947008
7.3449368 -1.6686777 -1.0380367 1114898432
7.3735299 -1.6656539 -1.0437181 1109393408
7.3662515 -1.6476548 -1.0434874 1112276992
7.3615174 -1.632683 -1.0367291 1114374144
7.3783073 -1.5976484 -1.04491 1113587712
7.4190259 -1.6126045 -1.0554594 1105723392
7.3856988 -1.5856564 -1.0429567 1112276992
7.436069 -1.5795522 -1.0679132 1102053376
7.3919787 -1.5596355 -1.0479282 1112801280
7.7773862 -1.5611292 -1.1691011 1102053376
7.4027839 -1.5366261 -1.0501237 1109393408
7.4473944 -1.554564 -1.0650278 1101004800
7.4094019 -1.5236309 -1.0489743 1112276992
7.4525366 -1.5155489 -1.068547 1101529088
7.4931855 -1.5005184 -1.0758095 1098907648
7.8375092 -1.5100652 -1.184323 1105723392
7.4196868 -1.4806005 -1.0561584 1110179840
7.4400458 -1.4915785 -1.061448 1105723392
7.426095 -1.4616448 -1.0454994 1112014848
7.8917437 -1.473978 -1.2051148 1108606976
7.9036593 -1.4579978 -1.2003562 1108606976
7.4441624 -1.442578 -1.0614684 1109131264
7.4649572 -1.4425336 -1.0720793 1102053376
7.485177 -1.454538 -1.0710499 1101529088
7.5367708 -1.4444715 -1.0869479 1096810496
7.9384904 -1.4159313 -1.216175 1110441984
7.4683437 -1.4025513 -1.0677253 1107820544
7.5123639 -1.3984815 -1.0844485 1097859072
7.5869584 -1.408372 -1.1106759 1093664768
7.960916 -1.4049374 -1.2146842 1111228416
7.4876781 -1.387544 -1.0694494 1102053376
7.5847678 -1.3894275 -1.0973604 1094713344
7.4934807 -1.3625237 -1.0742776 1106771968
7.9833264 -1.3568871 -1.2266405 1111752704
7.5715318 -1.3534187 -1.0994003 1094713344
7.6190081 -1.348353 -1.1150939 1094713344
8.0010452 -1.3468862 -1.2268398 1112801280
7.5227342 -1.3204951 -1.0810468 1104150528
7.6324701 -1.3343794 -1.1087283 1093664768
7.7194695 -1.3341973 -1.1523528 1093664768
8.0485058 -1.316764 -1.2560302 1114636288
7.619894 -1.3063654 -1.1120522 1092616192
8.0208836 -1.2958435 -1.2369425 1113063424
8.1733036 -1.3146117 -1.2924848 1115422720
7.5488262 -1.2784661 -1.0878859 1102053376
7.6570864 -1.2893307 -1.1203319 1093664768
7.7639399 -1.2841622 -1.1606498 1095761920
8.0433788 -1.2888365 -1.2386299 1112801280
7.6730337 -1.2583059 -1.1261759 1092616192
8.064539 -1.2422832 -1.2512525 1113849856
8.1938877 -1.2446076 -1.2933186 1115422720
7.5717568 -1.2344369 -1.0947864 1099956224
7.6770806 -1.2263185 -1.1231061 1093664768
7.8192158 -1.2341174 -1.1712384 1097859072
8.0955629 -1.2307782 -1.2524165 1113849856
7.7252178 -1.2112477 -1.1400086 1092616192
7.5988045 -1.1904068 -1.101912 1097859072
7.8627315 -1.1790837 -1.1792196 1098907648
8.093792 -1.1817548 -1.2579445 1114112000
8.441782 -1.1842662 -1.3748878 1114898432
8.1048222 -1.1747624 -1.2560898 1114374144
8.2243233 -1.174595 -1.2961493 1115422720
7.6445956 -1.1483611 -1.112744 1096810496
8.4850025 -1.1202285 -1.3837867 1114898432
8.1172438 -1.1147469 -1.2596767 1114112000
8.2455673 -1.1025858 -1.2982255 1115684864
8.3943052 -1.0683329 -1.3586886 1115422720
8.5253563 -1.0541945 -1.3917917 1114898432
8.4273109 -0.99931276 -1.3633641 1115422720
8.5695324 -0.98915547 -1.4009815 1114898432
8.4603167 -0.92829263 -1.3680314 1115684864
8.567605 -0.92210168 -1.4137126 1115160576
8.6089306 -0.9231227 -1.4086914 1114636288
8.6150122 -0.86704975 -1.4260359 1115422720
8.6921082 -0.84194607 -1.4507967 1115160576
8.8357191 -0.83276516 -1.4940809 1114898432
8.6703577 -0.81199193 -1.4397652 1115422720
8.7337122 -0.77591485 -1.4581414 1115160576
8.8997335 -0.77768302 -1.5136284 1116078080
8.9174509 -0.77168208 -1.513844 1116471296
8.7168083 -0.75394118 -1.4517806 1115160576
8.7702436 -0.70238584 -1.4649342 1114898432
8.924139 -0.70467407 -1.5156304 1116340224
8.9794855 -0.70761567 -1.5296021 1117519872
8.802659 -0.63985765 -1.4715478 1114898432
8.8205175 -0.63683021 -1.4780992 1115422720
8.9555292 -0.6316604 -1.5187435 1116209152
8.8828459 -0.5767678 -1.4929185 1115684864
4.8654456 -3.3279469 -0.25903356 1113849856
4.8574715 -3.3074596 -0.25596115 1113587712
4.8608937 -3.2899704 -0.25328201 1113063424
4.8616662 -3.265974 -0.25237378 1113063424
4.8602333 -3.2369761 -0.25180992 1113325568
4.8747902 -3.225975 -0.25207484 1113849856
4.8795671 -3.206969 -0.25347126 1113849856
4.8897119 -3.1899648 -0.25444117 1113849856
4.8973556 -3.169955 -0.25671902 1113325568
4.9030881 -3.1469479 -0.25839406 1113587712
4.9271994 -3.1339345 -0.26160249 1114112000
4.9367537 -3.1109223 -0.26445815 1114898432
4.95013 -3.0889051 -0.26849875 1114898432
4.9679184 -3.0678911 -0.27181351 1115160576
4.980999 -3.04287 -0.27679694 1114898432
5.2981977 -2.8424339 -0.38076264 1114636288
5.3181839 -2.8483927 -0.39062566 1114636288
5.3379536 -2.853363 -0.39780083 1114898432
5.3577223 -2.856333 -0.40496764 1114898432
5.3784466 -2.8583019 -0.41242531 1114636288
5.396965 -2.8572693 -0.42023572 1115160576
5.4176893 -2.8562381 -0.42768085 1115422720
5.4400301 -2.8542006 -0.43666777 1114636288
5.2753448 -2.8309789 -0.369991 1114112000
5.4849353 -2.8341427 -0.45045775 1114636288
5.2587371 -2.8185091 -0.3627145 1114636288
5.4931693 -2.818141 -0.45084152 1114636288
5.5014033 -2.8011394 -0.4512212 1114898432
5.5067706 -2.7811413 -0.45070261 1114898432
5.511548 -2.7601354 -0.4520908 1115160576
5.719974 -2.7588401 -0.52275932 1115684864
5.5236039 -2.7411287 -0.45364279 1115684864
5.5404367 -2.7221158 -0.45667061 1115684864
5.7676759 -2.7307918 -0.53423995 1115422720
5.5502863 -2.6991076 -0.45857093 1115815936
5.7836237 -2.7087669 -0.54012156 1113849856
5.8078041 -2.6987402 -0.5465039 1115684864
5.5680747 -2.6790936 -0.46188971 1115947008
5.802072 -2.6647482 -0.54459083 1113587712
5.8399944 -2.6626947 -0.55734515 1115684864
5.5817461 -2.6550806 -0.46496662 1115815936
5.5992393 -2.6330626 -0.46923253 1116209152
5.8287544 -2.6247272 -0.54952729 1114636288
5.8823285 -2.6296446 -0.5692398 1115947008
5.6126151 -2.6060455 -0.47325227 1115947008
5.6361361 -2.5840242 -0.4783338 1116209152
5.851615 -2.582711 -0.55327463 1113849856
5.9246635 -2.5965948 -0.5811345 1116078080
5.9628811 -2.5615456 -0.59279555 1114112000
5.6552453 -2.5579996 -0.48412895 1116078080
5.677515 -2.5329757 -0.48985815 1116209152
5.871314 -2.5376947 -0.55707943 1114636288
6.0080819 -2.527492 -0.60557157 1115422720
5.7007413 -2.50595 -0.4958744 1114898432
5.890058 -2.4926796 -0.56058896 1114112000
6.0491657 -2.4914393 -0.61811405 1114636288
5.9179907 -2.4506617 -0.56485689 1114898432
6.0915003 -2.4533894 -0.62998784 1115684864
6.1376567 -2.4183345 -0.64305496 1115422720
5.9319572 -2.4026525 -0.56687802 1114374144
6.0393858 -2.4054353 -0.61891979 1115160576
6.1422787 -2.415298 -0.65179676 1114898432
6.0109482 -2.3804896 -0.60584301 1114898432
6.0205722 -2.3924639 -0.61200637 1114374144
6.1741033 -2.3812616 -0.66044027 1114636288
6.1850634 -2.3822823 -0.65545762 1115422720
5.9972067 -2.3665161 -0.59944588 1115160576
5.9871049 -2.3465426 -0.59310144 1114898432
6.2043123 -2.3462315 -0.66753393 1114898432
6.2321754 -2.3452263 -0.66881156 1115947008
5.8650765 -2.3307395 -0.54591453 1114112000
5.8874168 -2.3327019 -0.55491805 1114374144
5.9154897 -2.3356571 -0.56569695 1114898432
5.9419465 -2.3356185 -0.57491744 1114636288
5.9685864 -2.3275752 -0.58520758 1114636288
5.9933157 -2.3315349 -0.59495753 1114898432
6.0204325 -2.3274908 -0.60541201 1114898432
6.0513721 -2.3234422 -0.61704713 1113849856
5.9658327 -2.3045878 -0.58216751 1114636288
6.0806956 -2.3164001 -0.62712395 1114636288
6.1176624 -2.311348 -0.63957065 1114112000
6.1488967 -2.3033035 -0.65023369 1113849856
6.2335658 -2.3092029 -0.67432374 1114898432
6.2751698 -2.3061712 -0.68193167 1115684864
6.3721743 -2.3080111 -0.7202825 1114374144
5.9676738 -2.2895987 -0.5795337 1115160576
6.1820416 -2.2932565 -0.66147864 1114374144
6.2120256 -2.281209 -0.67278516 1114112000
5.9644427 -2.2716117 -0.57636702 1114898432
6.261569 -2.2701714 -0.68176585 1115160576
6.31846 -2.26612 -0.69409239 1115947008
6.4358935 -2.2719247 -0.74086469 1117126656
6.3400545 -2.241044 -0.71217233 1115160576
6.388052 -2.2559996 -0.72287732 1114898432
6.4791837 -2.2378733 -0.75305039 1118699520
6.290822 -2.2321427 -0.6885516 1114898432
6.3627057 -2.2250674 -0.70654404 1116209152
6.348949 -2.2150373 -0.71376514 1114898432
6.409297 -2.2039902 -0.72503722 1114636288
6.5126243 -2.1998305 -0.76322311 1120796672
6.3181648 -2.1921165 -0.69473857 1115160576
6.3638706 -2.190027 -0.71617752 1115160576
6.406951 -2.1830153 -0.71899146 1116209152
6.3765864 -2.1640153 -0.71895075 1115160576
6.5527525 -2.1627789 -0.77546614 1121583104
6.3464632 -2.1510892 -0.70121688 1115422720
6.4254694 -2.1509829 -0.72667235 1115160576
6.4550185 -2.1429577 -0.73262811 1116340224
6.3902578 -2.1360021 -0.72201085 1115422720
6.5839872 -2.1217346 -0.78599125 1120927744
6.3709397 -2.1090667 -0.70651013 1115422720
6.4128237 -2.1109822 -0.72678483 1114898432
6.5024252 -2.1009059 -0.74500567 1117388800
6.4264951 -2.0809691 -0.7298367 1114898432
6.4425974 -2.0969741 -0.72859859 1114636288
6.4023991 -2.0670395 -0.71291405 1115815936
6.5546098 -2.0598476 -0.75886339 1119617024
6.4564514 -2.0494568 -0.73268026 1114636288
6.653439 -2.0386415 -0.80814815 1116733440
6.4805198 -2.0269215 -0.74106872 1114636288
6.5887098 -2.0127995 -0.77024901 1117650944
6.7268682 -2.0085733 -0.82442904 1115422720
6.4986734 -1.9958984 -0.7465477 1114898432
6.5279269 -1.9668697 -0.75337112 1114636288
6.6291337 -1.9667522 -0.78149891 1116209152
6.7812581 -1.9715164 -0.83793831 1114374144
6.549902 -1.9338416 -0.76002252 1115160576
6.8182254 -1.9274647 -0.85022205 1114374144
6.5769496 -1.9018114 -0.7671985 1114374144
6.9466896 -1.9002773 -0.89503121 1115684864
6.8149085 -1.8864343 -0.85739893 1114112000
6.8665881 -1.8864113 -0.86289895 1114636288
6.9238286 -1.8932936 -0.89107889 1116209152
6.6090693 -1.8707788 -0.77489907 1114898432
6.9582248 -1.8642496 -0.90158433 1114636288
6.8454828 -1.8503952 -0.86669439 1114112000
6.9076715 -1.8423587 -0.87540787 1114898432
6.9561739 -1.8392787 -0.8945666 1115684864
6.9721909 -1.8452405 -0.90372664 1116340224
6.8833351 -1.8143554 -0.87614524 1113849856
6.9579449 -1.800303 -0.88867104 1114636288
6.9909348 -1.8152252 -0.90729898 1114636288
6.9233937 -1.7793171 -0.88523513 1113849856
6.9796252 -1.7812707 -0.89633638 1115422720
7.0173917 -1.7961868 -0.91644013 1116209152
7.0119624 -1.759227 -0.90675837 1114636288
6.957129 -1.7412783 -0.89445233 1114112000
7.0638433 -1.748136 -0.92849737 1114898432
6.9989586 -1.7222638 -0.8978765 1115815936
6.9819708 -1.6992465 -0.90195161 1113849856
7.0354052 -1.7081907 -0.91535789 1114636288
7.0521684 -1.7111909 -0.91531622 1114636288
7.1144118 -1.6990843 -0.94077587 1115422720
7.0160012 -1.6582117 -0.91020083 1113587712
7.1056032 -1.6671354 -0.92850107 1115160576
7.0623832 -1.6541737 -0.91928053 1115160576
7.1548352 -1.647037 -0.9520008 1115815936
7.1479378 -1.6190856 -0.94033313 1114636288
7.0411377 -1.6151841 -0.91674042 1113849856
7.0903163 -1.6011558 -0.92350245 1114898432
7.2054038 -1.5979853 -0.96427917 1115684864
7.0764194 -1.5731521 -0.92432529 1113849856
7.1940937 -1.5710307 -0.95334589 1114898432
7.2480335 -1.5459394 -0.9751392 1115160576
7.1094947 -1.5301185 -0.93227094 1114374144
7.1457319 -1.4850851 -0.9401384 1114374144
7.2944851 -1.4938887 -0.98717976 1115815936
7.3364549 -1.4398482 -0.99678081 1116078080
7.4485903 -1.3996382 -1.0469573 1112014848
7.4621921 -1.3366386 -1.0467097 1111490560
7.5441346 -1.3305155 -1.0761873 1100480512
7.4948325 -1.2766277 -1.0492167 1112276992
7.6715732 -1.2773426 -1.117431 1093664768
7.5434742 -1.2635212 -1.0746566 1101529088
7.7236876 -1.2202978 -1.1280603 1093664768
7.5141664 -1.2136208 -1.0507404 1112276992
7.5681758 -1.1995162 -1.0757412 1102053376
7.706264 -1.1643033 -1.1266301 1093664768
7.7707291 -1.163255 -1.1381693 1094713344
7.7916636 -1.1631843 -1.1551031 1093664768
8.142971 -1.1727263 -1.2647275 1114112000
7.5884657 -1.1355079 -1.0775557 1101529088
7.8838363 -1.1191006 -1.175023 1098907648
7.9122744 -1.1260464 -1.1880245 1099956224
7.681788 -1.1033267 -1.1209066 1093664768
7.7322865 -1.1012876 -1.1302198 1094713344
7.8250499 -1.1052116 -1.1484294 1096810496
8.1401043 -1.1117306 -1.263587 1114636288
8.1906729 -1.1126784 -1.2760744 1113849856
7.7294898 -1.0582786 -1.1323161 1094713344
7.9348397 -1.0680264 -1.1926607 1100480512
7.9579258 -1.0690273 -1.1924708 1101529088
7.7602196 -1.0382696 -1.1344001 1094713344
8.1337109 -1.0467439 -1.2602937 1114636288
8.1871452 -1.0496879 -1.2736747 1115160576
8.2431517 -1.0536243 -1.2889013 1114374144
8.0243721 -1.0169638 -1.2075489 1112276992
8.267108 -1.0325805 -1.2993548 1115684864
7.7460976 -1.0082488 -1.1393313 1091567616
7.9932771 -1.0139822 -1.2031628 1110966272
8.1619396 -0.97972977 -1.2635018 1114636288
8.2224274 -0.98665601 -1.2811719 1114636288
8.2867374 -0.99157733 -1.3000149 1114374144
8.0606785 -0.96091753 -1.2185318 1114374144
8.2864418 -0.96057361 -1.3008406 1115422720
8.0050373 -0.95197195 -1.2054906 1115160576
8.2618256 -0.92262322 -1.2888901 1114898432
8.3423777 -0.93052351 -1.3127636 1114112000
8.1863461 -0.91172075 -1.2655249 1114112000
8.0367918 -0.89194894 -1.2108638 1114898432
8.317832 -0.89055997 -1.3039663 1115815936
8.29424 -0.85759503 -1.2954932 1114898432
8.3830967 -0.86748034 -1.3229871 1114374144
8.4993496 -0.85926908 -1.3735224 1115815936
8.6445065 -0.85609484 -1.4152162 1114636288
8.2158241 -0.84470952 -1.2680725 1114636288
8.3412828 -0.81955212 -1.3056816 1115684864
8.4310942 -0.80443639 -1.3333659 1114112000
8.326951 -0.79257089 -1.3011409 1115160576
8.5193443 -0.78825706 -1.3762634 1115684864
8.6800833 -0.78806704 -1.421737 1114374144
8.5574217 -0.71623474 -1.381447 1115422720
8.7147036 -0.72004044 -1.4279625 1114112000
8.5793266 -0.64322019 -1.3847694 1115684864
8.7477093 -0.65202028 -1.4326422 1113849856
8.6243877 -0.57119328 -1.3910638 1115684864
8.8433084 -0.57182765 -1.4785891 1114898432
8.9847136 -0.5576452 -1.5222175 1116340224
8.8890295 -0.50179547 -1.4861424 1115160576
8.9410582 -0.51370633 -1.5075001 1115815936
9.0097799 -0.48363101 -1.5254661 1116340224
8.9957438 -0.45165378 -1.5199493 1116340224
8.9204893 -0.42976856 -1.4924212 1115160576
9.0469027 -0.40960997 -1.5303462 1116209152
9.0549107 -0.38659108 -1.5348177 1117388800
8.9560652 -0.35874078 -1.4989291 1115160576
9.0713091 -0.33460096 -1.5323402 1116340224
8.9967146 -0.28571081 -1.5059495 1114374144
5.0045204 -3.0228486 -0.28188694 1114898432
5.0220137 -2.9978309 -0.28614044 1114898432
5.0471501 -2.9758029 -0.29276779 1115422720
5.071331 -2.9527762 -0.29909569 1115815936
5.0936017 -2.9267521 -0.30482095 1114636288
5.1165323 -2.9007225 -0.31179675 1114374144
5.1467409 -2.8776925 -0.31894034 1114112000
5.1715822 -2.8506608 -0.32650229 1114112000
5.2037024 -2.8266284 -0.33423206 1114636288
5.2519794 -2.8105311 -0.35745335 1114112000
5.2314105 -2.7985928 -0.34267545 1114374144
5.2385683 -2.7935553 -0.35166913 1114374144
5.2248268 -2.7670817 -0.34521973 1114898432
5.262279 -2.7715576 -0.351053 1114636288
5.2212653 -2.7475977 -0.34142146 1114636288
5.2941041 -2.7445211 -0.35972571 1115160576
5.0958233 -2.7198122 -0.28998971 1114374144
5.111475 -2.7207832 -0.29692283 1114636288
5.1261721 -2.7197554 -0.30355251 1114898432
5.1491022 -2.7207258 -0.31064096 1114636288
5.2250175 -2.735606 -0.33939064 1114636288
5.0738482 -2.7148407 -0.28317955 1114636288
5.1666656 -2.7176945 -0.31814772 1114374144
5.1870947 -2.7146595 -0.32653999 1114636288
5.2090702 -2.7106309 -0.33331257 1114898432
5.2254338 -2.7086072 -0.33905751 1114374144
5.3297505 -2.7184796 -0.36958355 1115160576
5.2278137 -2.685616 -0.33690575 1114898432
5.2550006 -2.6985588 -0.35059258 1113849856
5.2817535 -2.6925244 -0.35883272 1114112000
5.3085055 -2.68449 -0.36706436 1114374144
5.3584142 -2.6864429 -0.37830538 1114898432
5.2309752 -2.6686163 -0.33676472 1115160576
5.327024 -2.6714575 -0.37482452 1114112000
5.3575983 -2.6624179 -0.38423279 1113849856
5.2433262 -2.6536136 -0.33737805 1114898432
5.3811893 -2.6483834 -0.39250934 1114374144
5.3918543 -2.6573999 -0.38851553 1115684864
5.247148 -2.6326089 -0.33847111 1114898432
5.4155149 -2.6298523 -0.39989707 1114898432
5.4353538 -2.6193092 -0.41016883 1114636288
5.2553816 -2.6136072 -0.33884221 1115947008
5.4621062 -2.6022749 -0.418363 1114374144
5.4631472 -2.5973172 -0.40819734 1116340224
5.4898138 -2.5842392 -0.42684802 1114636288
5.502615 -2.5682709 -0.41922325 1115947008
5.5203881 -2.5671999 -0.43622285 1114898432
5.5430231 -2.5441666 -0.44416651 1115422720
5.536056 -2.5342281 -0.42941269 1115947008
5.5738926 -2.5231314 -0.45256916 1114898432
5.5694962 -2.5011852 -0.43960613 1116078080
5.6028509 -2.5010984 -0.46037737 1115160576
5.7258778 -2.4799225 -0.50248504 1115160576
5.6089644 -2.4691389 -0.4506194 1116078080
5.6324701 -2.4770606 -0.46942779 1114636288
5.6582665 -2.4500272 -0.47728491 1115160576
5.7592483 -2.4558926 -0.50955462 1114898432
5.6462264 -2.4350913 -0.46198943 1116340224
5.6853142 -2.4239972 -0.48448586 1115422720
5.7831345 -2.4278622 -0.51681721 1115422720
5.6825333 -2.4010446 -0.47306436 1115947008
5.8079758 -2.3978302 -0.52436662 1115422720
5.714273 -2.3969641 -0.49227321 1114112000
5.733397 -2.3709965 -0.48446682 1115684864
5.7451415 -2.3689291 -0.50064647 1113849856
5.8483295 -2.3737957 -0.53254712 1114898432
5.7731447 -2.3388977 -0.50812602 1113587712
5.8801541 -2.3457594 -0.54121566 1115422720
5.9557734 -2.3576353 -0.57090813 1115160576
5.7643361 -2.3319485 -0.49595574 1115815936
5.8109117 -2.318814 -0.52808356 1114374144
5.8417811 -2.3267784 -0.53660744 1114374144
5.7722592 -2.306886 -0.51085865 1114374144
5.7953377 -2.3103583 -0.51747996 1114636288
5.9088173 -2.3157227 -0.54994571 1115160576
5.9748125 -2.3106244 -0.5734539 1113587712
5.7230968 -2.2809713 -0.49032822 1115160576
5.7415023 -2.2924299 -0.50024909 1115160576
5.9396863 -2.2836874 -0.55830246 1115422720
5.7043958 -2.2650087 -0.48134378 1115160576
5.8275347 -2.2748408 -0.52152252 1114112000
6.0039959 -2.266609 -0.57705319 1113325568
5.6866503 -2.247045 -0.47264639 1115160576
5.8615661 -2.2448061 -0.5298177 1113849856
5.9687495 -2.252635 -0.57081515 1115422720
5.6815081 -2.2360604 -0.46891835 1115160576
5.966579 -2.2336268 -0.57268161 1114636288
6.0131855 -2.2236063 -0.57761937 1115160576
5.7219315 -2.2070129 -0.48023942 1115422720
5.7480936 -2.2009704 -0.49039027 1115160576
5.8908191 -2.2107775 -0.5366202 1113849856
5.9729018 -2.2146277 -0.5724625 1115422720
6.0220795 -2.2175992 -0.57929546 1112801280
6.0911512 -2.2054574 -0.61314452 1115947008
5.7663169 -2.1909339 -0.49911845 1114898432
5.8057852 -2.1878874 -0.51025301 1114636288
5.9833417 -2.1966274 -0.57247275 1115684864
6.0437598 -2.1895669 -0.58692318 1115160576
5.8319473 -2.177845 -0.52038717 1112276992
5.8612709 -2.1668026 -0.5304473 1114898432
5.9016943 -2.159755 -0.54186022 1113587712
5.9162512 -2.1757536 -0.54223788 1113587712
5.981431 -2.1726301 -0.57178217 1115422720
6.0461912 -2.171586 -0.58236599 1113587712
6.1376023 -2.1694067 -0.62525177 1115684864
5.9352474 -2.1417208 -0.55005801 1113849856
5.9928265 -2.1516287 -0.57207531 1115684864
6.0791106 -2.1565216 -0.59770697 1115422720
5.9673243 -2.1346662 -0.5630787 1114636288
5.9998097 -2.1186244 -0.57304817 1114898432
6.0007648 -2.128623 -0.57338512 1115422720
6.0541296 -2.1195805 -0.58355469 1113849856
6.1207852 -2.1244769 -0.60835534 1115684864
6.1799374 -2.1293569 -0.63711739 1115815936
6.0118647 -2.1056178 -0.57462513 1115684864
6.026927 -2.1005807 -0.58344406 1114374144
6.0236254 -2.0816071 -0.57711154 1115815936
6.0562506 -2.0815389 -0.59347081 1114112000
6.1573873 -2.0904343 -0.61847478 1115815936
6.2260933 -2.0913019 -0.65017182 1115815936
6.0979242 -2.0664937 -0.60419005 1113849856
6.0366364 -2.0575991 -0.57893783 1115815936
6.1231308 -2.0434527 -0.61397469 1114374144
6.1978106 -2.0563869 -0.62977493 1115684864
6.2725449 -2.0512509 -0.66226256 1116078080
6.0471463 -2.0305858 -0.58207208 1115684864
6.1609836 -2.0234127 -0.62349242 1113849856
6.2302957 -2.0183451 -0.63965231 1115160576
6.4290819 -2.0230186 -0.71783394 1115947008
6.0639796 -2.005573 -0.58507496 1115684864
6.1963348 -2.0013673 -0.63432229 1114636288
6.3088517 -2.0082045 -0.67329985 1116078080
6.273881 -1.9832979 -0.65087837 1116078080
6.4526024 -1.9779973 -0.72281933 1115947008
6.4831767 -1.9909577 -0.73231953 1115422720
6.2227921 -1.975329 -0.64343411 1114636288
6.353097 -1.9671522 -0.6857515 1116209152
6.249249 -1.9482907 -0.65254188 1113849856
6.3092322 -1.9442527 -0.66163725 1115422720
6.2931294 -1.9252474 -0.66286266 1114636288
6.4017549 -1.9261029 -0.69747317 1116602368
6.4770789 -1.9319749 -0.72809589 1115815936
6.4964828 -1.9359542 -0.73306078 1115160576
6.681613 -1.9236979 -0.794393 1116340224
6.3217926 -1.8962108 -0.671597 1113063424
6.4399724 -1.8820539 -0.70909661 1116209152
6.5005999 -1.8849537 -0.73307312 1115815936
6.5218449 -1.8839438 -0.73544598 1115422720
6.3555284 -1.8671718 -0.6808517 1113587712
6.7207861 -1.8756477 -0.80629486 1116340224
6.4835577 -1.8380067 -0.720285 1116602368
6.528533 -1.8399357 -0.73732841 1116078080
6.6421447 -1.8387452 -0.78289062 1114898432
6.3870578 -1.8361313 -0.69046324 1114112000
6.5373573 -1.8289418 -0.73582214 1114898432
6.7773824 -1.8325925 -0.81941402 1116340224
6.4258657 -1.8070902 -0.70023847 1114112000
6.6660309 -1.8027147 -0.79011983 1115160576
6.5278029 -1.7939545 -0.73272419 1116471296
6.5552154 -1.7929146 -0.7422356 1115422720
6.8146448 -1.7835449 -0.83072144 1116078080
6.4478412 -1.7710623 -0.70687729 1113587712
6.5566912 -1.7749348 -0.73738325 1115160576
6.7029281 -1.768676 -0.79928386 1114898432
6.4787102 -1.7380271 -0.71522993 1113587712
6.5696597 -1.7454053 -0.74440664 1116209152
6.8661685 -1.737492 -0.84330755 1114898432
6.7315912 -1.7326394 -0.80798906 1115160576
6.5076685 -1.7029943 -0.7229836 1113849856
6.6111517 -1.7018652 -0.75390375 1116733440
6.7713547 -1.6975971 -0.81803441 1114636288
6.6028476 -1.6968803 -0.75027072 1115684864
6.9068871 -1.6884485 -0.85358959 1115422720
6.5407438 -1.6679606 -0.73096269 1114374144
6.8142791 -1.6615552 -0.82800555 1115160576
7.0214548 -1.6642572 -0.89935106 1115815936
6.6506195 -1.654819 -0.76485443 1115422720
6.8467646 -1.6235136 -0.83788311 1114898432
6.9431939 -1.6364021 -0.86458927 1114898432
7.0379224 -1.6042539 -0.90000159 1116078080
6.8916006 -1.5874691 -0.84844476 1115422720
6.9950132 -1.5883532 -0.8762117 1114898432
6.9383469 -1.5504223 -0.85959256 1115422720
7.0553455 -1.5452495 -0.90095145 1115160576
7.1141319 -1.5461385 -0.92749065 1114898432
7.0306597 -1.536312 -0.88596082 1115160576
7.2494397 -1.5249729 -0.96711284 1114112000
6.9698763 -1.5083818 -0.86915815 1115422720
7.0752349 -1.4847571 -0.89899373 1115160576
7.1401544 -1.491123 -0.9311139 1114636288
7.0131664 -1.4683307 -0.88131887 1115160576
7.3016238 -1.4759146 -0.98093706 1114898432
7.1829238 -1.4400507 -0.9483009 1114112000
7.0446959 -1.4252905 -0.89088023 1114374144
7.0984259 -1.4262385 -0.90329754 1115160576
7.1652212 -1.4351085 -0.93443775 1115422720
7.3493261 -1.4268667 -0.99233001 1114898432
7.0851197 -1.383243 -0.90214682 1114112000
7.1902881 -1.3780942 -0.93775749 1115160576
7.2124729 -1.394026 -0.95409793 1114112000
7.3841567 -1.3878001 -1.0081611 1115684864
7.3894544 -1.3738153 -1.0045062 1115422720
7.1309109 -1.3401973 -0.91297448 1114636288
7.2366538 -1.3449997 -0.96031743 1114112000
7.21631 -1.3220786 -0.94137663 1115684864
7.4210539 -1.3317617 -1.0172331 1116078080
7.4359059 -1.3227645 -1.016551 1115684864
7.2753921 -1.2969719 -0.96685189 1113587712
7.1732454 -1.2951475 -0.92481911 1114112000
7.4608169 -1.2757196 -1.0271908 1115422720
7.4794912 -1.2697175 -1.027702 1114636288
7.3058958 -1.247946 -0.97293133 1113325568
7.4869089 -1.2176908 -1.033963 1114636288
7.3373556 -1.197919 -0.97930199 1113587712
7.5078592 -1.213677 -1.0372788 1111490560
7.5218954 -1.1606549 -1.0424405 1114112000
7.5393887 -1.1576366 -1.046786 1109655552
7.364994 -1.146897 -0.98448783 1114112000
7.5277681 -1.1506212 -1.0504928 1112014848
7.5521049 -1.1026251 -1.0494381 1112801280
7.5680518 -1.1006002 -1.0554032 1107296256
7.5493078 -1.0876158 -1.0516511 1112014848
7.6220613 -1.0714958 -1.0803411 1102053376
7.5753303 -1.0426002 -1.0553162 1112014848
7.6097264 -1.0445557 -1.0659512 1103626240
7.8663588 -1.0461763 -1.1567589 1094713344
7.5708485 -1.0256103 -1.0528139 1112014848
7.6305904 -1.0044985 -1.0795563 1101529088
7.6017175 -0.9825753 -1.0611247 1110441984
7.6425066 -0.98751825 -1.0747938 1101529088
7.912818 -0.98365408 -1.1619549 1101004800
7.9536843 -0.99211216 -1.1719995 1115815936
7.5933442 -0.96260381 -1.0542675 1111752704
7.6509657 -0.92553413 -1.0708685 1110704128
7.8976092 -0.92018956 -1.1533276 1115160576
7.9360361 -0.92510056 -1.1746402 1115160576
7.9911718 -0.93008184 -1.1791357 1115947008
8.1147738 -0.90585691 -1.2329214 1114374144
7.9875598 -0.87604761 -1.1872137 1115684864
7.9245868 -0.85417283 -1.1572001 1115684864
8.1650467 -0.84880126 -1.2461218 1114374144
8.0241623 -0.82400519 -1.1972579 1115422720
8.075531 -0.83192134 -1.2173482 1114898432
8.2203922 -0.79074347 -1.2598386 1114636288
8.2351589 -0.77570266 -1.2695711 1114636288
8.0810528 -0.77295405 -1.2093881 1112539136
8.117135 -0.77189004 -1.2247181 1113063424
8.3685551 -0.74853945 -1.3085775 1115947008
8.4800472 -0.74039125 -1.3440361 1114636288
8.1328726 -0.71990514 -1.2209898 1114374144
8.2709608 -0.73169178 -1.2720753 1114374144
8.3666439 -0.7275421 -1.3078995 1115160576
8.1447725 -0.70886797 -1.2298535 1113849856
8.2586098 -0.70769483 -1.2712991 1114374144
8.4069281 -0.67752117 -1.3128098 1115684864
8.5248823 -0.67534703 -1.3544765 1114636288
8.1564627 -0.66387081 -1.2290907 1115422720
8.31425 -0.67064083 -1.284148 1114636288
8.3961935 -0.66151762 -1.3136132 1114636288
8.163517 -0.64485312 -1.2332838 1115160576
8.2839718 -0.64068455 -1.2736214 1114374144
8.2041655 -0.60882282 -1.2404588 1115422720
8.3695965 -0.61058301 -1.2978563 1114374144
8.4248648 -0.60050958 -1.3154131 1114898432
8.5642805 -0.60831428 -1.362182 1114374144
8.780715 -0.58300012 -1.4373177 1114112000
8.3083782 -0.57267553 -1.2756447 1114112000
8.4182539 -0.54853392 -1.3094902 1112801280
8.6024284 -0.54127872 -1.370548 1114636288
8.4641151 -0.53047484 -1.3235838 1114636288
8.6602592 -0.49716949 -1.3966041 1115684864
8.8076925 -0.51398337 -1.4411778 1114374144
8.4707327 -0.48647982 -1.3223047 1112801280
8.6466045 -0.47523978 -1.3797339 1114374144
8.8349657 -0.44397068 -1.4440778 1113849856
8.6850319 -0.42315125 -1.4008085 1115815936
8.8730431 -0.37494838 -1.4492742 1113849856
8.725975 -0.34812531 -1.4068648 1115422720
8.7570705 -0.27410769 -1.4109291 1115160576
9.1071806 -0.26057717 -1.5378802 1116471296
9.0424366 -0.21167867 -1.5134864 1114112000
9.087862 -0.13664256 -1.5219741 1114898432
9.1294661 -0.06161138 -1.5292813 1115160576
5.0371065 -2.70191 -0.26654083 1113849856
5.0554771 -2.7098753 -0.27486652 1114374144
5.008008 -2.6809695 -0.25223008 1114112000
5.0235128 -2.6939387 -0.25969121 1114112000
5.0012503 -2.6679916 -0.24694815 1114112000
4.9941974 -2.6520097 -0.24260892 1114636288
4.9855628 -2.6320274 -0.23828782 1114112000
4.9775896 -2.6100402 -0.2352093 1113849856
4.9832525 -2.5897129 -0.23373398 1114374144
5.004272 -2.5820189 -0.2401959 1114112000
5.2693481 -2.595598 -0.3409887 1116078080
5.0249963 -2.573988 -0.24761191 1113587712
5.0539551 -2.5689549 -0.25549108 1113587712
5.282064 -2.5755861 -0.34378701 1115947008
5.0712228 -2.5569198 -0.26391572 1113849856
5.0963593 -2.5468919 -0.2705932 1114112000
5.2906628 -2.5515752 -0.34634334 1116078080
5.121861 -2.5358546 -0.27947265 1114374144
5.1384687 -2.5198245 -0.28662992 1113325568
5.3147745 -2.5345619 -0.34953508 1115947008
5.1702933 -2.5087879 -0.29536963 1115422720
5.321167 -2.5095494 -0.35245234 1116078080
5.1869006 -2.4887578 -0.30251008 1114374144
5.3427773 -2.4885304 -0.35694763 1116078080
5.2209315 -2.4767227 -0.31088057 1114898432
5.3602705 -2.4655125 -0.36120951 1116078080
5.2416558 -2.4566917 -0.31824633 1114112000
5.3733511 -2.4394913 -0.36618873 1115947008
5.2642918 -2.4366584 -0.32620266 1114112000
5.2964115 -2.4186258 -0.33395764 1114636288
5.3990784 -2.4164715 -0.3709012 1115947008
5.3222084 -2.3965929 -0.34183562 1113587712
5.421349 -2.3914473 -0.37663054 1115422720
5.3429327 -2.3725619 -0.34918469 1114112000
5.4474411 -2.3684182 -0.38354889 1115684864
5.3687296 -2.3485286 -0.35705432 1114636288
5.4697108 -2.3413939 -0.38926983 1115160576
5.4008493 -2.3264964 -0.36479256 1114374144
5.432014 -2.302465 -0.37222731 1114112000
5.4916863 -2.3143659 -0.39594626 1115684864
5.8202724 -2.3038981 -0.50788701 1115815936
5.5177784 -2.2883368 -0.40285206 1115684864
5.4590611 -2.2764347 -0.37942827 1113587712
5.5460763 -2.2613094 -0.40938866 1115947008
5.8534174 -2.2638514 -0.51900661 1115684864
5.4800811 -2.2464077 -0.38579702 1113849856
5.5718732 -2.2332761 -0.41724157 1115947008
5.6715884 -2.2210822 -0.46369782 1115160576
5.8986182 -2.2297978 -0.53178275 1115815936
5.5105 -2.2013383 -0.40233317 1114898432
5.5394578 -2.2093053 -0.41026661 1115422720
5.5570211 -2.2122738 -0.41779846 1115160576
5.5806122 -2.216239 -0.42615023 1115160576
5.6023698 -2.2112219 -0.43023482 1115422720
5.622426 -2.2171676 -0.4432593 1115422720
5.6428552 -2.2141325 -0.45165157 1115160576
5.6682096 -2.2105932 -0.46104002 1114898432
5.6954746 -2.2110515 -0.47103563 1115684864
5.4717774 -2.1854234 -0.38193008 1115160576
5.4845634 -2.1923981 -0.38800281 1115160576
5.5011706 -2.1983678 -0.3952519 1115160576
5.6632152 -2.1931105 -0.45680737 1115160576
5.9361758 -2.1917539 -0.5421806 1115684864
5.6339068 -2.1762099 -0.43302879 1116078080
5.6563091 -2.1671309 -0.45194858 1114898432
5.6598086 -2.1441569 -0.4456073 1115422720
5.9854937 -2.1566992 -0.55517781 1115947008
5.6554317 -2.1231475 -0.44783044 1114898432
5.6620498 -2.1061523 -0.44666418 1115684864
5.6852055 -2.1121399 -0.4496567 1116471296
5.7786131 -2.1030018 -0.48266381 1116340224
5.9687304 -2.1016996 -0.55500221 1114636288
6.0227556 -2.1166515 -0.56652284 1115684864
5.6664619 -2.0871556 -0.44585475 1115160576
5.6756511 -2.0691526 -0.44652531 1115684864
5.8152151 -2.0649593 -0.49276662 1116078080
5.993207 -2.0626771 -0.56030804 1114374144
6.0727692 -2.0745852 -0.5823223 1114636288
5.674696 -2.0451539 -0.44612989 1115160576
5.8556395 -2.0279119 -0.50405431 1116471296
6.0186386 -2.0236533 -0.56590897 1114898432
6.0966196 -2.0225616 -0.58790356 1113325568
6.1067643 -2.036557 -0.58900309 1116078080
5.9062076 -1.99386 -0.51639545 1116078080
6.0491428 -1.9856274 -0.5720346 1114898432
6.0836787 -1.9795567 -0.58895898 1115815936
6.1532159 -1.9975061 -0.601098 1115684864
6.116909 -1.9735532 -0.58978081 1114112000
6.2015786 -1.9584527 -0.61378336 1116602368
5.9437647 -1.9538162 -0.52678496 1115947008
6.0717082 -1.9436074 -0.5767374 1114374144
6.0980101 -1.9515384 -0.59326971 1114898432
6.1288877 -1.9240317 -0.5948447 1114636288
6.0983906 -1.9035865 -0.58167386 1114374144
6.2321525 -1.9134138 -0.62304127 1116471296
6.3556838 -1.9082018 -0.67374468 1115422720
6.1460071 -1.8974944 -0.60368627 1115684864
6.1187506 -1.8595649 -0.58673352 1114374144
6.1502094 -1.8715373 -0.59336305 1114898432
6.1673226 -1.8694715 -0.60910797 1115422720
6.2722807 -1.8703623 -0.63525921 1116471296
6.3919907 -1.8691553 -0.68479872 1115815936
6.1917982 -1.8394489 -0.61445117 1116078080
6.3171167 -1.8283179 -0.64579576 1116340224
6.4333696 -1.8301065 -0.69637305 1115815936
6.1425662 -1.8155476 -0.59076762 1114374144
6.2220078 -1.810419 -0.62156987 1116078080
6.2449384 -1.7793896 -0.62852478 1115684864
6.356585 -1.7832718 -0.65675473 1116209152
6.4810719 -1.7920585 -0.70781207 1114898432
6.1654272 -1.7715317 -0.59450692 1114636288
6.2700748 -1.7473618 -0.63511032 1115815936
6.3970089 -1.7392243 -0.66801327 1116340224
6.5224509 -1.7510097 -0.71937805 1115160576
6.580142 -1.7209269 -0.73916966 1115815936
6.3031502 -1.7163281 -0.64310616 1116209152
6.5638299 -1.7089611 -0.73093998 1115947008
6.3352699 -1.6842958 -0.65080261 1115947008
6.4396381 -1.6941785 -0.67890233 1116733440
6.5944042 -1.664922 -0.74020201 1115947008
6.6010923 -1.6659135 -0.74227244 1115815936
6.3531284 -1.6472687 -0.65721202 1115947008
6.6244578 -1.6468616 -0.75464493 1115947008
6.5709529 -1.6309307 -0.73804784 1113849856
6.6446772 -1.6228663 -0.753465 1116209152
6.3919363 -1.6142275 -0.66697043 1116209152
6.6121225 -1.6089215 -0.74020892 1115815936
6.6942048 -1.6077718 -0.77603036 1115815936
6.4291286 -1.5801929 -0.67517918 1116209152
6.6059394 -1.5938947 -0.74660909 1114374144
6.6463628 -1.5968468 -0.75806379 1115422720
