# .PCD v0.7 - Point Cloud Data file format
VERSION 0.7
FIELDS x y z rgb
SIZE 4 4 4 4
TYPE F F F U
COUNT 1 1 1 1
WIDTH 1255
HEIGHT 1
VIEWPOINT 0 0 0 1 0 0 0
POINTS 1255
DATA ascii
3.5339999 0.78100002 0.38800001 1118306304
3.5439999 0.78500003 0.389 1109655552
3.461 0.81 0.384 1117913088
3.4860001 0.80199999 0.384 1110179840
7.0139999 0.80000001 0.39399999 0
3.434 0.81999999 0.38100001 1110179840
3.388 0.86799997 0.38 1125515264
3.402 0.88499999 0.38 1125515264
7.0640001 0.89700001 0.398 1065353216
3.4095001 0.90450001 0.38499999 1125515264
3.4155002 0.93000001 0.38800001 1125515264
3.415 0.94300002 0.391 1125515264
3.4245 0.96500003 0.3935 1125515264
3.4300001 0.98199999 0.39899999 1125515264
3.4349999 1.001 0.39700001 1125515264
3.477 1.12 0.382 1125580800
3.4849999 1.1339999 0.38699999 1125580800
3.494 1.151 0.39450002 1125580800
3.5153999 1.2107999 0.391 1125515264
3.3940001 1.263 0.38999999 1125580800
3.4100001 1.302 0.391 1125580800
3.425 1.34 0.39199999 1125580800
3.431 1.376 0.38599998 1125580800
3.4460001 1.4145 0.389 1125580800
3.0610001 1.438 0.39899999 1122631680
3.402 1.427 0.38499999 1125515264
3.02 1.448 0.39300001 1120927744
3.4260001 1.4400001 0.389 1125515264
2.9460001 1.47 0.384 1124401152
2.9879999 1.462 0.389 1121845248
2.9159999 1.483 0.38 1125515264
3.454 1.4859999 0.39199999 1125580800
3.461 1.485 0.39500001 1125580800
3.4649999 -1.5369999 0.40799999 1125580800
2.0079999 -1.4419999 0.41133332 1119748096
2.0046666 -1.4363333 0.41066667 1111097344
1.9906667 -1.4106666 0.41466665 1125580800
4.3099999 -1.4119999 0.417 1125515264
1.9886665 -1.3893334 0.41566667 1125580800
1.985 -1.368 0.417 1125580800
4.3189998 -1.376 0.414 1125515264
1.9855 -1.3529999 0.41525 1125580800
4.3325 -1.3435 0.40600002 1125580800
1.9860001 -1.33075 0.41224998 1125580800
4.3313332 -1.3360001 0.414 1125515264
1.9849999 -1.312 0.41 1125580800
4.3133335 -1.3086667 0.41 1125515264
4.3390002 -1.302 0.40900001 1125515264
1.98325 -1.29125 0.40724999 1125580800
2.8540001 -1.283 0.419 1101529088
4.323 -1.293 0.40000001 1125515264
1.9823333 -1.267 0.40600002 1125580800
4.3330002 -1.261 0.405 1125580800
1.985 -1.247 0.40799999 1125580800
1.978 -1.228 0.405 1125580800
2.6589999 -1.224 0.405 1100480512
2.7049999 -1.235 0.41100001 1101529088
4.3540001 -1.228 0.40400001 1125515264
1.9809999 -1.215 0.40400001 1125580800
1.978 -1.198 0.40099999 1125580800
1.983 -1.1849999 0.40000001 1125580800
4.362 -1.191 0.40099999 1125515264
2.497 -1.177 0.417 1099956224
2.4165001 -1.151 0.41299999 1100480512
4.3470001 -1.155 0.40099999 1125515264
2.3329999 -1.125 0.403 1099431936
4.3660002 -1.1175001 0.41150001 1125515264
2.2154999 -1.0929999 0.414 1101791232
2.2249999 -1.098 0.41800001 1100480512
4.3699999 -1.0885 0.41049999 1125515264
2.119 -1.0650001 0.40099999 1101004800
2.1300001 -1.0650001 0.412 1098907648
4.3800001 -1.077 0.41100001 1125515264
2.0699999 -1.0470001 0.40200001 1098907648
4.3740001 -1.0420001 0.41 1125515264
4.3860002 -1.056 0.40799999 1125580800
1.987 -1.025 0.41600001 1110704128
2.016 -1.033 0.412 1100480512
4.3990002 -1.0369999 0.40599999 1125580800
1.913 -1.0039999 0.403 1112801280
1.924 -1.005 0.41499999 1100480512
1.948 -1.0140001 0.405 1112014848
1.9680001 -1.0190001 0.40200001 1099431936
4.3889999 -1.0090001 0.40700001 1125515264
1.849 -0.98400003 0.40400001 1099956224
1.864 -0.98900002 0.41600001 1099431936
1.882 -0.99199998 0.40900001 1103101952
4.4089999 -0.99299997 0.40000001 1125515264
1.809 -0.97500002 0.41800001 1115422720
1.8279999 -0.97799999 0.40799999 1097859072
4.395 -0.96899998 0.41499999 1125515264
1.715 -0.94300002 0.414 1098907648
1.72 -0.94499999 0.41600001 1110179840
1.74 -0.95300001 0.40400001 1115422720
1.652 -0.92299998 0.40599999 1109655552
1.6705 -0.92900002 0.40549999 1094320128
1.6905 -0.93550003 0.4095 1095499776
4.4060001 -0.93199998 0.41800001 1125515264
1.591 -0.90675002 0.40450001 1125515264
1.6068749 -0.91162503 0.40974998 1113980928
1.625 -0.91400003 0.4025 1109917696
2.6715 -0.44499999 0.412 1082916864
2.6470001 -0.43399999 0.41299999 1101529088
2.615 -0.40900001 0.41499999 1098907648
2.6359999 -0.40799999 0.412 1115815936
2.6589999 -0.41999999 0.41800001 1123811328
2.6700001 -0.40900001 0.40099999 1125515264
2.5999999 -0.38600001 0.412 1107296256
2.6459999 -0.38600001 0.414 1115947008
2.6673336 -0.396 0.41299999 1111425024
2.8050001 -0.384 0.40799999 1125515264
2.6669998 -0.37650001 0.41850001 1110769664
2.71 -0.373 0.403 1086324736
2.6930001 -0.35800001 0.40000001 1107296256
2.6326666 -0.33000001 0.41433334 1125515264
2.6559999 -0.336 0.412 1125515264
2.612 -0.30500001 0.412 1125515264
2.6294999 -0.31300002 0.4095 1125515264
2.6115 -0.29275 0.40974998 1125515264
2.6210001 -0.28999999 0.412 1125515264
2.5769999 -0.273 0.40599999 1125515264
2.6122499 -0.26875001 0.40925002 1125515264
2.595 -0.241 0.40900001 1125515264
2.6100001 -0.25400001 0.41149998 1125515264
2.5929999 -0.229 0.40799999 1125515264
2.6086667 -0.23266667 0.41366664 1125515264
2.5973332 -0.21433334 0.40933335 1125515264
2.612 -0.2095 0.4145 1125515264
2.596 -0.19199999 0.40933335 1125515264
2.615 -0.18900001 0.41350001 1125515264
2.5873334 -0.16933334 0.40799999 1125515264
2.6005001 -0.16749999 0.41 1125515264
2.5926666 -0.15066667 0.40933335 1125515264
2.6029999 -0.148 0.40700001 1125515264
2.5915 -0.13 0.40850002 1125515264
2.6023333 -0.131 0.40933335 1125515264
2.5966666 -0.11166667 0.40866664 1125515264
2.6065001 -0.106 0.41 1125515264
2.5917501 -0.088750005 0.40650001 1125515264
2.609 -0.082999997 0.414 1125515264
2.5857499 -0.067500003 0.40549999 1125515264
2.6040001 -0.061000001 0.41299999 1125515264
2.5885 -0.046250001 0.40549999 1125515264
2.599 -0.025 0.40700001 1125515264
2.6055002 -0.028250001 0.40899998 1125515264
2.618 -0.0065000001 0.40799999 1125515264
2.6240001 -0.016000001 0.417 1125515264
2.6400001 -0.001 0.4145 1125515264
2.598 0.017000001 0.40700001 1102053376
2.6129999 0.018999999 0.40900001 1109655552
2.6275001 0.0079999994 0.412 1102839808
2.5929999 0.039000001 0.40599999 1082130432
2.6036665 0.026666665 0.4086667 1100742656
2.5769999 0.054000001 0.41800001 1111228416
2.585 0.046500001 0.4095 1096286208
2.5929999 0.064999998 0.40849999 1099825152
2.599 0.082000002 0.40799999 1095761920
2.602 0.083999999 0.40700001 1099431936
8.3710003 0.16500001 0.40900001 1091567616
8.3640003 0.228 0.40700001 1091567616
8.3859997 0.29300001 0.40799999 1091567616
8.3780003 0.35699999 0.40599999 1090519040
8.368 0.42199999 0.405 1090519040
8.3500004 0.486 0.403 1090519040
8.3479996 0.55000001 0.403 1090519040
8.3290005 0.61500001 0.40200001 1091567616
3.9295001 0.65350002 0.41149998 1111359488
3.8559999 0.67799997 0.40799999 1110966272
3.8699999 0.667 0.40099999 1117519872
3.9070001 0.66600001 0.41800001 1108606976
3.776 0.699 0.41800001 1113063424
3.8369999 0.68599999 0.412 1109393408
8.3710003 0.68300003 0.40400001 1090519040
3.7379999 0.713 0.414 1112539136
3.7720001 0.70700002 0.40599999 1108869120
3.7880001 0.70099998 0.40000001 1111490560
3.6600001 0.736 0.405 1113587712
3.6900001 0.72899997 0.41100001 1114701824
3.7149999 0.727 0.40200001 1109655552
3.625 0.75049996 0.4025 1114570752
3.415 0.81800002 0.41600001 1116340224
3.4560001 0.80699998 0.419 1118306304
3.487 0.80699998 0.41800001 1110179840
3.3889999 0.83099997 0.414 1123287040
3.4260001 0.82499999 0.41 1110704128
3.381 0.84650004 0.40850002 1125515264
3.3870001 0.87349999 0.4095 1125515264
3.3989999 0.88999999 0.41800001 1125515264
3.3965001 0.90999997 0.41100001 1125515264
3.4059999 0.94599998 0.403 1125580800
3.4189999 0.98100001 0.403 1125580800
3.434 0.99900001 0.403 1125515264
3.4389999 1.0190001 0.40400001 1125580800
3.4530001 1.0285 0.41049999 1125515264
3.4520001 1.053 0.41049999 1125515264
3.4619999 1.04 0.403 1125515264
3.467 1.073 0.40700001 1125515264
3.46 1.091 0.40400001 1125580800
3.47 1.105 0.41 1125515264
3.473 1.132 0.40899998 1125515264
7.1609998 1.13 0.41100001 1115815936
3.483 1.153 0.41800001 1125515264
8.066 1.143 0.40099999 1094713344
3.4779999 1.17 0.41800001 1125515264
3.4935 1.17 0.40933335 1125515264
3.4970002 1.1876 0.4118 1125515264
3.5020001 1.198 0.40400001 1125515264
3.5105 1.2049999 0.40399998 1125515264
3.4649999 1.256 0.40000001 1125515264
3.5179999 1.242 0.40700001 1125515264
3.1429999 1.416 0.41 1119354880
3.1830001 1.403 0.41499999 1110704128
3.0680001 1.431 0.41800001 1125318656
3.098 1.426 0.40400001 1120927744
2.9920001 1.452 0.41499999 1125515264
3.0309999 1.442 0.417 1125515264
2.9059999 1.465 0.41 1125515264
2.951 1.46 0.41299999 1125515264
2.8540001 1.493 0.41 1125515264
2.881 1.48 0.41 1125515264
2.756 1.5190001 0.40599999 1125515264
2.7909999 1.513 0.40700001 1125515264
2.8145001 1.5075001 0.41299999 1124990976
2.7 1.538 0.403 1125515264
2.7379999 1.535 0.40599999 1125515264
2.747 1.5319999 0.41 1123549184
2.7750001 1.521 0.41299999 1124532224
2.6824999 1.55 0.403 1125580800
2.7160001 1.54 0.40599999 1124597760
2.6845 1.5755 0.40549999 1125515264
2.6919999 1.604 0.40850002 1125318656
2.6930001 1.632 0.414 1124204544
2.704 1.633 0.40900001 1124663296
4.1960001 -1.829 0.42300001 1125515264
4.2030001 -1.79 0.426 1125515264
4.2080002 -1.751 0.428 1125515264
4.2179999 -1.714 0.43099999 1125515264
4.23 -1.677 0.43399999 1125515264
4.2350001 -1.638 0.43599999 1125515264
4.2459998 -1.631 0.43599999 1125515264
4.2589998 -1.596 0.433 1125515264
4.2709999 -1.5599999 0.43000001 1125515264
4.2779999 -1.522 0.426 1125515264
4.2909999 -1.4859999 0.42300001 1125515264
4.2969999 -1.448 0.41999999 1125515264
2.0085001 -1.427 0.43650001 1125580800
1.999 -1.41 0.43099999 1125580800
1.99 -1.3924999 0.426 1125580800
1.99 -1.38 0.42199999 1125580800
4.30725 -1.3310001 0.42825001 1125515264
4.3309999 -1.324 0.421 1125580800
4.3266668 -1.3066667 0.42833331 1125580800
4.335 -1.289 0.43599999 1125515264
2.155 -1.271 0.433 1125580800
2.8305001 -1.2745 0.4285 1101266944
4.309 -1.271 0.43599999 1125646336
4.3039999 -1.257 0.43900001 1125711872
2.0009999 -1.232 0.435 1125580800
2.6429999 -1.222 0.43799999 1100480512
2 -1.216 0.433 1125580800
4.3499999 -1.2029999 0.43799999 1125515264
1.9960001 -1.197 0.43000001 1125580800
2.5190001 -1.182 0.43000001 1100480512
2.553 -1.1950001 0.43399999 1100480512
4.3499999 -1.186 0.433 1125580800
4.355 -1.17 0.42899999 1125580800
4.3670001 -1.155 0.426 1125580800
2.3169999 -1.124 0.43599999 1101004800
2.3310001 -1.1289999 0.435 1100480512
2.3710001 -1.1390001 0.43700001 1101529088
4.3649998 -1.135 0.42199999 1125515264
2.267 -1.1059999 0.433 1093664768
2.29 -1.114 0.42300001 1098907648
2.1949999 -1.085 0.42199999 1098907648
2.1270001 -1.067 0.433 1099956224
2.0725 -1.051 0.42650002 1095499776
1.977 -1.022 0.42399999 1099431936
2.0265 -1.0365 0.42649999 1097728000
1.941 -1.012 0.43200001 1099431936
1.852 -0.986 0.43799999 1111228416
1.8789999 -0.995 0.43099999 1112276992
1.898 -0.99900001 0.42300001 1097859072
1.775 -0.96399999 0.42899999 1102053376
1.799 -0.96899998 0.435 1099431936
1.814 -0.97500002 0.43099999 1108869120
1.739 -0.95099998 0.41999999 1100480512
1.7460001 -0.95200002 0.41999999 1108606976
1.77 -0.95899999 0.42300001 1108082688
1.648 -0.9235 0.43199998 1112539136
1.6654999 -0.9285 0.4355 1110573056
1.5750002 -0.90266663 0.4313333 1125515264
1.5901667 -0.90816665 0.4325 1110900736
1.608 -0.91000003 0.42899999 1117782016
1.6294999 -0.91700006 0.42750001 1110966272
4.4130001 -0.89399999 0.41999999 1125515264
4.421 -0.85600001 0.42199999 1125515264
4.434 -0.81900001 0.42500001 1125515264
4.4439998 -0.78200001 0.42699999 1125515264
4.4510002 -0.745 0.42899999 1125515264
4.4580002 -0.70700002 0.43099999 1125515264
4.467 -0.66900003 0.433 1125515264
4.4759998 -0.63200003 0.43599999 1125515264
4.4879999 -0.59500003 0.43799999 1125515264
8.592 -0.458 0.43599999 1091567616
2.654 -0.43599999 0.42199999 1099431936
2.6605 -0.4355 0.42750001 1099694080
2.6529999 -0.41333333 0.42933333 1115947008
2.6570001 -0.39199999 0.43900001 1120141312
2.6659999 -0.391 0.42899999 1123549184
2.7090001 -0.38100001 0.42899999 1125515264
8.5790005 -0.39700001 0.433 1091567616
2.6489999 -0.377 0.43799999 1119748096
2.6800001 -0.37200001 0.43000001 1073741824
2.71 -0.36750001 0.42399999 1085538304
2.6545 -0.34450001 0.43650001 1125515264
2.6735001 -0.3515 0.42500001 1111621632
2.6800001 -0.35299999 0.421 1112539136
2.6339998 -0.3215 0.43150002 1125515264
2.642 -0.32300001 0.421 1125515264
2.6270001 -0.301 0.428 1125515264
2.615 -0.2895 0.42699999 1125515264
2.6125 -0.26950002 0.42550001 1125515264
2.6064999 -0.248 0.4235 1125515264
2.589 -0.233 0.43399999 1125515264
2.602 -0.23199999 0.426 1125515264
2.608 -0.213 0.43150002 1125515264
2.5935001 -0.191 0.428 1125515264
2.589 -0.167 0.42399999 1125515264
2.6010001 -0.17299999 0.43200001 1125515264
2.5899999 -0.146 0.42399999 1125515264
2.6059999 -0.153 0.43099999 1125515264
2.5880001 -0.125 0.42399999 1125515264
2.6070001 -0.132 0.43000001 1125515264
2.5869999 -0.104 0.42500001 1125515264
2.605 -0.111 0.428 1125515264
2.5810001 -0.082999997 0.42399999 1125515264
2.6059999 -0.090999998 0.428 1125515264
2.585 -0.063000001 0.42500001 1125515264
2.602 -0.07 0.426 1125515264
2.585 -0.043000001 0.426 1125515264
2.602 -0.048999999 0.42500001 1125515264
2.599 -0.022 0.42899999 1125515264
2.6140001 -0.028000001 0.426 1125515264
2.6285 -0.0045000003 0.43150002 1125515264
2.599 0.017999999 0.43099999 1119879168
2.6099999 0.013 0.42399999 1099956224
2.5939999 0.035999998 0.42649999 1099169792
2.5869999 0.057999998 0.43200001 1110704128
2.5910001 0.075000003 0.41999999 1098907648
2.6140001 0.079000004 0.43700001 1088421888
3.9089999 0.65700001 0.43200001 1111490560
3.8670001 0.67299998 0.428 1111490560
3.881 0.67199999 0.43700001 1111228416
3.816 0.68949997 0.426 1111621632
3.7490001 0.71399999 0.421 1112276992
3.7030001 0.72500002 0.43799999 1112276992
3.6170001 0.755 0.43200001 1112276992
3.6600001 0.741 0.435 1112276992
3.5420001 0.778 0.43599999 1118699520
3.572 0.76499999 0.433 1117126656
3.596 0.76700002 0.433 1110179840
3.4935 0.792 0.42750001 1117585408
3.536 0.78299999 0.426 1115815936
3.5420001 0.78799999 0.426 1111490560
8.6219997 0.79100001 0.43799999 1091567616
3.4295001 0.81599998 0.43199998 1113980928
3.464 0.80400002 0.43099999 1119092736
3.3885 0.83099997 0.42949998 1120403456
8.2980003 0.829 0.421 1094713344
3.3710001 0.84200001 0.426 1125580800
3.375 0.86199999 0.43149999 1125580800
7.0149999 0.875 0.42699999 1097859072
3.3845 0.889 0.4355 1125580800
3.392 0.90499997 0.43799999 1125580800
3.4089999 0.92900002 0.421 1125515264
3.4130001 0.94700003 0.42199999 1125515264
3.415 0.96399999 0.42199999 1125515264
3.4260001 0.99150002 0.42399999 1125515264
3.4475 1.0285 0.426 1125515264
3.4489999 1.051 0.42500001 1125515264
3.4519999 1.0650001 0.42500001 1125515264
3.467 1.069 0.42199999 1125515264
3.4667499 1.0895 0.42649999 1125515264
3.4616668 1.11 0.43133333 1125515264
3.477 1.122 0.42300001 1125515264
3.48 1.133 0.42199999 1125515264
3.4849999 1.145 0.41999999 1125515264
3.4979999 1.209 0.42399999 1125580800
3.5107501 1.2075001 0.43125001 1125580800
3.4860001 1.2359999 0.426 1125515264
3.438 1.25 0.42399999 1125515264
3.3989999 1.267 0.42300001 1125580800
3.411 1.304 0.428 1125580800
3.418 1.3380001 0.433 1125580800
3.4289999 1.375 0.43799999 1125580800
3.1459999 1.409 0.421 1117782016
3.1930001 1.4 0.42300001 1118437376
3.108 1.421 0.41999999 1121976320
2.948 1.474 0.43599999 1119354880
2.9679999 1.472 0.43700001 1122762752
2.8775001 1.493 0.42899999 1121714176
2.9130001 1.487 0.43199998 1121255424
2.938 1.48 0.435 1122238464
2.7820001 1.5190001 0.42699999 1124204544
2.8 1.51 0.42699999 1124466688
2.8299999 1.507 0.42899999 1123680256
2.8499999 1.503 0.426 1115881472
2.7484999 1.527 0.426 1125253120
2.687 1.5534999 0.42799997 1125515264
2.701 1.54 0.426 1125515264
2.733 1.543 0.428 1107820544
2.6860001 1.573 0.43200001 1125515264
2.6875 1.5925 0.43700001 1124859904
3.2460001 1.9859999 0.433 1088421888
4.1830001 -1.851 0.458 1125515264
4.2020001 -1.818 0.45500001 1125515264
4.2049999 -1.778 0.45100001 1125515264
4.2199998 -1.743 0.447 1125515264
4.2259998 -1.705 0.44299999 1125515264
4.2379999 -1.668 0.44 1125515264
4.2490001 -1.602 0.44 1125515264
4.2509999 -1.561 0.442 1125515264
4.2729998 -1.528 0.44600001 1125515264
2.0739999 -1.49 0.45899999 1125580800
4.2839999 -1.4910001 0.449 1125515264
2.0380001 -1.461 0.449 1125580800
2.0320001 -1.452 0.44499999 1125580800
4.2909999 -1.452 0.45199999 1125515264
4.2969999 -1.414 0.454 1125515264
4.3109999 -1.378 0.458 1125515264
4.3025002 -1.34325 0.44875002 1125515264
2.0480001 -1.308 0.45199999 1125580800
2.0280001 -1.28 0.44499999 1125580800
4.3000002 -1.262 0.45699999 1125711872
2.0179999 -1.2589999 0.44100001 1125580800
2.0510001 -1.252 0.456 1125580800
2.7090001 -1.242 0.45899999 1101004800
4.3049998 -1.251 0.45300001 1125711872
4.3319998 -1.245 0.44999999 1125515264
4.3485003 -1.2505 0.44749999 1125515264
2.0339999 -1.225 0.44999999 1125580800
4.336 -1.2309999 0.44600001 1125580800
4.3410001 -1.227 0.44999999 1125580800
2.6240001 -1.2130001 0.44499999 1100480512
4.3435001 -1.215 0.447 1125515264
4.3494997 -1.189 0.45550001 1125580800
2.451 -1.164 0.45466664 1101135872
4.3520002 -1.164 0.458 1125580800
4.3569999 -1.147 0.45899999 1125580800
2.3469999 -1.13 0.44600001 1099431936
2.253 -1.104 0.456 1096810496
2.1865001 -1.0865 0.44749999 1102577664
2.1329999 -1.071 0.44100001 1109131264
2.145 -1.072 0.45199999 1099431936
2.0769999 -1.051 0.44 1101004800
1.976 -1.022 0.45899999 1108082688
1.984 -1.024 0.44100001 1099956224
2.0350001 -1.039 0.45199999 1099956224
1.927 -1.007 0.44999999 1108869120
1.956 -1.018 0.44600001 1113063424
1.8380001 -0.98299998 0.44400001 1101529088
1.868 -0.99000001 0.45100001 1102053376
1.8839999 -0.99400002 0.44299999 1108082688
1.712 -0.94300002 0.44600001 1110441984
1.729 -0.949 0.44949999 1109786624
1.744 -0.954 0.45500001 1110441984
1.767 -0.95899999 0.45500001 1112539136
1.6849999 -0.93400002 0.44 1110179840
4.4029999 -0.93800002 0.458 1125515264
1.594 -0.90999997 0.4425 1125515264
1.6055 -0.91100001 0.447 1117323264
1.628 -0.91799998 0.454 1110179840
4.4159999 -0.90200001 0.45699999 1125515264
4.4219999 -0.86500001 0.456 1125515264
4.427 -0.847 0.45899999 1125515264
4.4349999 -0.83399999 0.45700002 1125515264
4.4380002 -0.81199998 0.458 1125515264
4.4489999 -0.81400001 0.458 1125515264
4.448 -0.79049999 0.45499998 1125515264
4.4499998 -0.77700001 0.458 1125515264
4.4640002 -0.76099998 0.456 1125515264
4.4510002 -0.75700003 0.454 1125515264
4.454 -0.74000001 0.456 1125515264
4.4645 -0.727 0.454 1125515264
4.4710002 -0.70733333 0.45566666 1125515264
4.4679999 -0.68400002 0.45300001 1125515264
4.4829998 -0.68300003 0.456 1125515264
4.4710002 -0.67000002 0.45500001 1125515264
4.4819999 -0.67699999 0.45300001 1125515264
4.487 -0.65066665 0.45366669 1125515264
4.4875002 -0.62950003 0.454 1125515264
4.4889998 -0.61549997 0.45249999 1125515264
4.4945002 -0.59350002 0.45300001 1125515264
4.5180001 -0.59899998 0.454 1125515264
8.7530003 -0.5 0.45199999 1090519040
2.6546669 -0.43266666 0.44733334 1103233024
8.7559996 -0.435 0.45199999 1091567616
2.6140001 -0.405 0.45699999 1125515264
2.6493332 -0.41133332 0.45266667 1119551488
2.651 -0.389 0.449 1092878336
2.694 -0.366 0.44400001 1103626240
2.7030001 -0.37599999 0.44600001 1084227584
2.6429999 -0.345 0.458 1125515264
2.6313334 -0.33199999 0.45466664 1125515264
2.6105001 -0.30400002 0.45300001 1125515264
2.6306665 -0.31466666 0.45466664 1125515264
2.5940001 -0.28299999 0.449 1125515264
2.6090002 -0.29066667 0.44966665 1125515264
2.5899999 -0.27350003 0.44949999 1125515264
2.615 -0.27599999 0.442 1125515264
2.5746667 -0.25266668 0.44666669 1125515264
2.5969999 -0.259 0.45100001 1125515264
2.6159999 -0.25600001 0.44100001 1125515264
2.5639999 -0.23100001 0.44474998 1125515264
2.5546668 -0.21066666 0.44866666 1125515264
2.572 -0.214 0.44499999 1125515264
2.553 -0.18933333 0.44833335 1125515264
2.5599999 -0.199 0.44400001 1125515264
2.5829999 -0.193 0.44600001 1125515264
2.5539999 -0.169 0.45099998 1125515264
2.5713332 -0.17233334 0.44533333 1125515264
2.5664999 -0.147 0.44550002 1125515264
2.585 -0.156 0.44800001 1125515264
2.6059999 -0.153 0.449 1125515264
2.569 -0.12550001 0.44599998 1125515264
2.586 -0.133 0.44800001 1125515264
2.6040001 -0.131 0.44800001 1125515264
2.5755 -0.104 0.447 1125515264
2.595 -0.111 0.44999999 1125515264
2.602 -0.11 0.447 1125515264
2.5916669 -0.087666668 0.44733334 1125515264
2.5780001 -0.071999997 0.44800001 1125515264
2.5970001 -0.066500001 0.44850001 1125515264
2.5739999 -0.057 0.449 1125515264
2.5930002 -0.044 0.44799998 1125515264
2.589 -0.028000001 0.44949999 1125515264
2.6099999 -0.025 0.449 1125515264
2.6075001 -0.015999999 0.454 1125515264
2.6300001 -0.0040000002 0.45199999 1125515264
2.598 0.016000001 0.447 1103101952
2.6094999 0.0055 0.454 1115095040
2.625 0 0.45300001 1125515264
2.589 0.034000002 0.44949999 1103101952
2.6040001 0.022500001 0.45050001 1098514432
2.5912502 0.050500002 0.44924998 1099431936
2.6009998 0.067499995 0.44950002 1097072640
2.632 0.081 0.45500001 0
8.0389996 0.117 0.449 1098907648
8.717 0.168 0.449 1084227584
8.7740002 0.23899999 0.45199999 1084227584
8.7419996 0.30700001 0.44999999 1088421888
8.7589998 0.377 0.44999999 1088421888
8.7309999 0.44600001 0.44800001 1090519040
8.7410002 0.51700002 0.44800001 1090519040
8.7159996 0.58499998 0.44600001 1090519040
3.9289999 0.64600003 0.44299999 1090519040
3.9590001 0.64399999 0.456 0
8.6899996 0.65499997 0.44400001 1091567616
3.8499999 0.67799997 0.449 1111490560
3.902 0.66100001 0.45199999 1111752704
3.793 0.69300002 0.44400001 1112276992
3.806 0.685 0.45699999 1125515264
3.714 0.71899998 0.449 1118437376
3.7460001 0.70999998 0.44100001 1112539136
3.76 0.70300001 0.45300001 1125515264
3.783 0.704 0.45899999 1109393408
3.664 0.73400003 0.44499999 1117257728
3.717 0.72500002 0.44999999 1110704128
8.651 0.722 0.44100001 1091567616
3.6199999 0.74900001 0.44100001 1115684864
3.6560001 0.745 0.44850001 1110048768
3.5999999 0.76300001 0.44999999 1110966272
3.4890001 0.79900002 0.44100001 1111490560
3.5109999 0.78899997 0.45699999 1118830592
3.5420001 0.78100002 0.44499999 1111490560
3.461 0.80599999 0.45199999 1122369536
8.0889997 0.81699997 0.45300001 1113849856
3.3759999 0.83899999 0.44299999 1125515264
3.411 0.82099998 0.44600001 1123287040
3.3829999 0.85000002 0.458 1125515264
3.3770001 0.866 0.44400001 1125515264
3.392 0.88950002 0.45300001 1125515264
3.4070001 0.91900003 0.45899999 1125515264
3.3989999 0.92400002 0.44999999 1125515264
3.4054999 0.92750001 0.4425 1125580800
3.404 0.94749999 0.44849998 1125515264
3.4165001 0.96350002 0.449 1125580800
8.1099997 0.97799999 0.456 1117519872
3.415 0.98100001 0.45450002 1125515264
3.4230001 0.995 0.45100001 1125580800
3.4254999 1.005 0.4585 1125515264
3.4419999 1.0319999 0.45699999 1125580800
3.4660001 1.131 0.44299999 1125515264
3.4735 1.148 0.45050001 1125515264
3.474 1.161 0.45699999 1125515264
7.7249999 1.1720001 0.442 1125515264
3.5114002 1.2128 0.44940001 1125515264
3.434 1.249 0.45300001 1125515264
3.3959999 1.267 0.447 1125580800
3.4119999 1.306 0.449 1125580800
3.431 1.346 0.44999999 1125580800
3.434 1.381 0.44999999 1125580800
3.145 1.409 0.45100001 1118699520
3.191 1.403 0.456 1125515264
3.4475 1.4170001 0.44800001 1125515264
3.0539999 1.439 0.45100001 1118175232
3.0840001 1.432 0.44600001 1118044160
3.1090002 1.4265001 0.4535 1120272384
3.0209999 1.452 0.44350001 1116667904
3.0550001 1.443 0.44400001 1119879168
3.4555001 1.4530001 0.45050001 1125580800
2.9849999 1.464 0.44100001 1120272384
3 1.465 0.44 1119485952
3.4530001 1.489 0.45100001 1125515264
3.464 1.4859999 0.45500001 1125580800
2.7839999 1.511 0.45699999 1125515264
2.6930001 1.5369999 0.45199999 1125515264
2.7335 1.5320001 0.45700002 1115422720
2.7520001 1.52 0.45500001 1125515264
2.661 1.544 0.44999999 1125580800
2.6849999 1.552 0.45199999 1125580800
2.71 1.541 0.45500001 1124728832
2.6760001 1.574 0.454 1125515264
2.6894999 1.607 0.449 1115357184
2.6946666 1.6293334 0.45099998 1112670208
2.721 1.6569999 0.456 1118044160
2.0943334 -1.5099999 0.46933332 1125580800
2.1060002 -1.51475 0.47725001 1125580800
2.0810001 -1.498 0.463 1125580800
2.135 -1.409 0.479 1125580800
2.1170001 -1.382 0.472 1125580800
2.0810001 -1.344 0.46200001 1125580800
2.1289999 -1.348 0.479 1125580800
4.3024998 -1.3440001 0.46349999 1125515264
2.115 -1.323 0.47400001 1125580800
4.2934999 -1.3365 0.4725 1125515264
4.3140001 -1.339 0.46000001 1125515264
4.3150001 -1.3049999 0.479 1125515264
4.3210001 -1.3015001 0.46899998 1125515264
2.085 -1.289 0.46599999 1125580800
2.1705 -1.2865 0.472 1125580800
4.3264999 -1.2880001 0.46799999 1125515264
2.8039999 -1.271 0.46200001 1101004800
4.3060002 -1.263 0.47400001 1125711872
4.3340001 -1.2640001 0.46599999 1125515264
2.7460001 -1.25 0.463 1101004800
4.3365002 -1.2285 0.47100002 1125515264
2.596 -1.21 0.477 1100480512
4.342 -1.201 0.47799999 1125515264
2.5444999 -1.1905 0.47149998 1101004800
4.3439999 -1.191 0.47099999 1125515264
1.9630001 -1.161 0.46900001 1125580800
4.3449998 -1.165 0.47499999 1125515264
2.441 -1.159 0.461 1099956224
4.3515 -1.1535 0.47100002 1125515264
2.336 -1.13 0.472 1099431936
4.355 -1.125 0.46950001 1125515264
4.3610001 -1.1289999 0.461 1125580800
2.2874999 -1.1159999 0.47299999 1100218368
4.3655 -1.1110001 0.46900001 1125515264
2.2160001 -1.094 0.46399999 1099431936
2.2290001 -1.099 0.46000001 1102577664
4.369 -1.0934999 0.46700001 1125515264
4.3839998 -1.089 0.46599999 1125580800
2.1530001 -1.075 0.47600001 1099431936
4.3730001 -1.0725 0.47100002 1125515264
2.04 -1.043 0.46200001 1110179840
2.092 -1.057 0.46399999 1099431936
4.3709998 -1.059 0.46799999 1125515264
4.3860002 -1.0516667 0.46933332 1125515264
2.026 -1.036 0.46799999 1107558400
4.3860002 -1.028 0.46900001 1125515264
1.914 -1.005 0.46200001 1101004800
1.955 -1.017 0.47099999 1100480512
4.3903332 -1.0093333 0.46599999 1125515264
1.844 -0.98400003 0.47 1112801280
1.882 -0.995 0.477 1114636288
4.3920002 -0.98650002 0.465 1125515264
4.4029999 -0.98699999 0.47099999 1125515264
1.779 -0.96600002 0.46399999 1110441984
1.8075 -0.97350001 0.46700001 1112932352
4.4073334 -0.9683333 0.46466669 1125515264
4.4075003 -0.94799995 0.46450001 1125515264
1.649 -0.92500001 0.461 1111490560
1.666 -0.93000001 0.46599999 1110966272
1.688 -0.93599999 0.47299999 1111490560
4.4099998 -0.93900001 0.46599999 1125515264
4.4084997 -0.91649997 0.463 1125515264
4.4200001 -0.91600001 0.46399999 1125580800
4.4220004 -0.88866663 0.46233332 1125515264
4.4294996 -0.866 0.46149999 1125515264
4.4310002 -0.84100002 0.46200001 1125580800
4.4380002 -0.81599998 0.461 1125580800
4.461 -0.79299998 0.46200001 1125580800
4.4679999 -0.76599997 0.461 1125580800
4.4749999 -0.73900002 0.46000001 1125515264
4.5630002 -0.58600003 0.46000001 1125711872
2.6569998 -0.43400002 0.46599999 1078001664
2.6619999 -0.433 0.46599999 1099431936
2.651 -0.4095 0.46599999 1115750400
2.6739998 -0.39300001 0.4663333 1100218368
2.7060001 -0.398 0.47299999 1125515264
2.6370001 -0.36700001 0.46000001 1065353216
2.6704998 -0.36699998 0.46200001 1079771136
2.6830001 -0.377 0.47299999 0
2.7019999 -0.36899999 0.465 1097859072
2.6493332 -0.34966668 0.46866667 1110507520
2.6265001 -0.32550001 0.46700001 1125515264
2.6170001 -0.30199999 0.472 1125515264
2.5969999 -0.278 0.46799999 1125515264
2.575 -0.25799999 0.47499999 1125515264
2.5799999 -0.255 0.46399999 1125515264
2.5640001 -0.23449999 0.46649998 1125515264
2.553 -0.21600001 0.46799999 1125515264
2.5439999 -0.19499999 0.465 1125515264
2.5409999 -0.17399999 0.46200001 1125515264
2.549 -0.1505 0.4605 1125515264
2.552 -0.1305 0.4605 1125515264
2.556 -0.114 0.461 1125515264
2.5639999 -0.106 0.46200001 1125515264
2.559 -0.093999997 0.461 1125515264
2.5650001 -0.085000001 0.463 1125515264
2.5665002 -0.068999998 0.46200001 1125515264
2.5739999 -0.048500001 0.46399999 1125515264
2.5769999 -0.032000002 0.461 1125515264
2.5910001 -0.024 0.47 1125515264
2.592 -0.012 0.463 1125515264
2.6140001 -0.0040000002 0.47499999 1125515264
2.609 0.016000001 0.47499999 1113587712
2.6289999 0.0080000004 0.46900001 1125515264
2.6045001 0.033 0.46950001 1114636288
2.6034999 0.0535 0.47 1098776576
2.6110001 0.071999997 0.465 1090519040
8.1920004 0.14 0.46200001 1088421888
3.9230001 0.653 0.46799999 1112014848
3.869 0.67000002 0.463 1114636288
3.9260001 0.66100001 0.479 1109393408
3.8495002 0.68300003 0.47150001 1109393408
3.7839999 0.704 0.46799999 1109131264
3.6659999 0.736 0.47499999 1117126656
3.7179999 0.72399998 0.461 1109917696
3.618 0.755 0.47 1115160576
3.563 0.773 0.463 1118830592
6.842 0.77700001 0.479 1086324736
8.2410002 0.77700001 0.46200001 1101004800
7.9109998 0.77999997 0.47299999 1122631680
3.4635 0.80849999 0.47350001 1113456640
3.3874998 0.833 0.47149998 1122697216
3.404 0.824 0.46200001 1110179840
3.424 0.82200003 0.472 1116995584
3.372 0.84799999 0.46799999 1125580800
3.3705001 0.86300004 0.47 1125515264
3.3860002 0.8915 0.4725 1125515264
3.388 0.90799999 0.47299999 1125580800
7.1459999 0.90200001 0.47099999 1073741824
3.395 0.92699999 0.47499999 1125515264
3.3959999 0.94499999 0.47600001 1125580800
3.4189999 0.954 0.46000001 1125515264
7.073 0.95300001 0.465 1073741824
3.4035001 0.96200001 0.47600001 1125515264
3.4100001 0.98199999 0.47799999 1125580800
3.424 0.99150002 0.46899998 1125515264
3.427 1.016 0.463 1125580800
3.4389999 1.039 0.461 1125515264
3.444 1.0304999 0.465 1125515264
3.4484999 1.0555 0.46700001 1125515264
3.4460001 1.0656667 0.46766666 1125515264
3.4559999 1.0964999 0.46649998 1125515264
3.4619999 1.095 0.46200001 1125515264
8.1429996 1.085 0.46000001 1118175232
3.4489999 1.105 0.479 1125580800
3.4584999 1.1235 0.465 1125515264
3.4693334 1.13 0.47599998 1125580800
8.1569996 1.138 0.463 1117913088
3.477 1.151 0.47499999 1125515264
3.4835 1.152 0.477 1125580800
7.2030001 1.153 0.46799999 1120927744
3.477 1.1702501 0.46625 1125515264
3.4849999 1.17425 0.47325 1125515264
3.4902499 1.1907499 0.46974999 1125515264
8.1590004 1.189 0.465 1118699520
3.4920001 1.2029999 0.463 1125515264
3.5065 1.2049999 0.46149999 1125580800
3.4849999 1.234 0.461 1125515264
3.392 1.2589999 0.47799999 1125515264
3.3940001 1.265 0.479 1125580800
3.3970001 1.289 0.47799999 1125515264
3.2179999 1.391 0.47600001 1109131264
3.1340001 1.416 0.463 1118175232
3.148 1.411 0.47600001 1116864512
3.187 1.4024999 0.4745 1114636288
3.066 1.431 0.47099999 1118306304
3.109 1.4220001 0.47400001 1118961664
3.3050001 1.425 0.47099999 1125515264
2.993 1.454 0.46799999 1125515264
3.033 1.4450001 0.47 1125515264
2.9159999 1.472 0.463 1125515264
2.954 1.4630001 0.46599999 1125515264
2.848 1.492 0.46000001 1125515264
2.8740001 1.488 0.46899998 1120010240
2.8065 1.516 0.47299999 1124859904
2.8299999 1.5063334 0.47033334 1125056512
2.7420001 1.535 0.47600001 1124335616
2.7695 1.5275 0.47 1125515264
2.7869999 1.525 0.477 1125515264
2.671 1.5549999 0.47499999 1125580800
2.6819999 1.5470001 0.47400001 1125580800
2.7060001 1.546 0.47499999 1125515264
2.7249999 1.541 0.47499999 1125515264
2.6819999 1.605 0.46000001 1125515264
2.6919999 1.635 0.46399999 1125515264
4.1810002 -1.825 0.49200001 1125515264
4.1900001 -1.818 0.495 1125515264
4.1890001 -1.789 0.493 1125515264
4.198 -1.779 0.498 1125515264
4.1950002 -1.752 0.49399999 1125515264
4.2059999 -1.716 0.49599999 1125515264
4.2150002 -1.6799999 0.49700001 1125515264
4.224 -1.6440001 0.49900001 1125515264
4.257 -1.526 0.49700001 1125515264
2.1069999 -1.5044999 0.48100001 1125580800
2.1142001 -1.4924001 0.48920003 1125580800
2.125 -1.485 0.495 1125580800
4.263 -1.488 0.493 1125515264
2.1153333 -1.4686667 0.48499998 1125580800
2.128 -1.472 0.49150002 1125580800
2.1264999 -1.4495 0.48649999 1125580800
4.2740002 -1.4495001 0.49400002 1125515264
2.1313334 -1.4296666 0.48366666 1125580800
2.1290002 -1.4145 0.48500001 1125580800
4.2845001 -1.4135001 0.491 1125515264
2.1345 -1.3894999 0.48400003 1125580800
2.1340001 -1.367 0.48199999 1125580800
4.2934999 -1.378 0.48800001 1125515264
4.3024998 -1.3415 0.48500001 1125515264
4.2940001 -1.325 0.48300001 1125515264
4.3067498 -1.3280001 0.48874998 1125515264
2.902 -1.303 0.49200001 1101529088
4.2974997 -1.3085001 0.49400002 1125515264
4.3155003 -1.313 0.486 1125515264
4.3200002 -1.312 0.48100001 1125580800
2.8800001 -1.291 0.48300001 1101529088
4.3070002 -1.267 0.48199999 1125646336
2.651 -1.223 0.495 1099956224
2.6619999 -1.227 0.48500001 1101529088
4.329 -1.2359999 0.47999999 1125515264
2.5910001 -1.2079999 0.486 1101529088
2.4059999 -1.153 0.49000001 1103101952
2.421 -1.156 0.48699999 1100480512
4.3600001 -1.15 0.49599999 1125515264
2.3469999 -1.135 0.48300001 1102577664
2.365 -1.138 0.49000001 1099956224
4.3660002 -1.132 0.49200001 1125515264
4.368 -1.112 0.48800001 1125515264
2.2249999 -1.098 0.491 1097859072
4.3730001 -1.0930001 0.48500001 1125515264
2.1465001 -1.0755 0.48699999 1096941568
4.3660002 -1.064 0.49900001 1125515264
4.3800001 -1.073 0.48199999 1125515264
2.059 -1.049 0.495 1100480512
2.0869999 -1.056 0.47999999 1108082688
1.977 -1.023 0.495 1114898432
2.0020001 -1.03 0.48199999 1099956224
4.3720002 -1.034 0.498 1125515264
4.3800001 -1.036 0.48100001 1125515264
1.931 -1.011 0.48699999 1112539136
4.3790002 -1.0039999 0.49700001 1125515264
1.844 -0.98500001 0.47999999 1110441984
1.881 -0.995 0.48899999 1109393408
4.3909998 -1 0.484 1125515264
4.3924999 -0.96749997 0.49149999 1125515264
1.719 -0.94800001 0.48100001 1112014848
1.744 -0.954 0.48800001 1112014848
4.3940001 -0.94199997 0.49599999 1125515264
4.4120002 -0.926 0.49000001 1125515264
4.401 -0.91100001 0.495 1125515264
4.4250002 -0.889 0.49200001 1125515264
4.4089999 -0.87900001 0.495 1125515264
4.414 -0.847 0.49399999 1125515264
4.4289999 -0.85100001 0.49399999 1125515264
4.4335003 -0.81449997 0.49599999 1125515264
4.4349999 -0.78200001 0.49399999 1125515264
4.4489999 -0.77600002 0.49900001 1125515264
4.4460001 -0.74900001 0.495 1125515264
4.454 -0.71600002 0.495 1125515264
4.46 -0.68199998 0.495 1125515264
4.4619999 -0.648 0.49399999 1125515264
4.4699998 -0.61400002 0.495 1125580800
4.4920001 -0.57999998 0.49700001 1125515264
8.941 -0.47499999 0.48100001 1095761920
2.684 -0.44600001 0.48899999 1073741824
2.6530001 -0.41800001 0.48199999 1125384192
2.6949999 -0.40200001 0.48899999 1118044160
2.671 -0.37599999 0.484 1073741824
2.6489999 -0.34799999 0.49700001 1125515264
2.6293333 -0.33066666 0.49533334 1125515264
2.6089997 -0.30650002 0.49274999 1125515264
2.6229999 -0.31999999 0.49900001 1125515264
2.5935001 -0.28649998 0.49199998 1125515264
2.6140001 -0.29800001 0.49700001 1125515264
2.5739999 -0.26300001 0.48799998 1125515264
2.5876667 -0.27733332 0.48733333 1125515264
2.5725 -0.2525 0.48799998 1125515264
2.5556667 -0.236 0.484 1125515264
2.5610001 -0.229 0.486 1125515264
2.5510001 -0.21225001 0.48324999 1125515264
2.54775 -0.19024999 0.48225001 1125515264
2.5495 -0.16874999 0.48250002 1125515264
2.5515001 -0.14725 0.48300001 1125515264
2.556 -0.12800001 0.48266664 1125515264
2.5569999 -0.112 0.47999999 1125515264
2.562 -0.10933334 0.48600003 1125515264
2.5640001 -0.088249996 0.48475 1125515264
2.57025 -0.066750005 0.48599997 1125515264
2.576 -0.052999999 0.491 1125515264
2.5840001 -0.048999999 0.48500001 1125515264
2.5882502 -0.034250002 0.48949999 1125515264
2.5949998 -0.017000001 0.4905 1125515264
2.6034999 -0.0075000003 0.493 1125515264
2.6159999 0.003 0.49399999 1125515264
2.6270001 0.0095000006 0.4955 1125515264
2.615 0.031500001 0.49349999 1112539136
2.6229999 0.025 0.495 1112276992
2.6146667 0.051333334 0.49333334 1113260032
2.6389999 0.07 0.49700001 1093664768
3.8440001 0.67699999 0.49599999 1113325568
3.915 0.662 0.48100001 1109393408
3.7839999 0.69800001 0.48899999 1114636288
3.724 0.71700001 0.48199999 1116864512
3.7030001 0.727 0.498 1111490560
3.612 0.75599998 0.49000001 1111752704
3.6359999 0.74699998 0.49700001 1109655552
3.654 0.741 0.493 1111228416
3.5550001 0.77899998 0.498 1119092736
3.5734999 0.76800001 0.49149999 1116274688
3.589 0.76600003 0.49400002 1110310912
3.4933999 0.79640001 0.4894 1117257728
3.5310001 0.78499997 0.48699999 1114243072
3.5434999 0.78400004 0.48949999 1116733440
3.4159999 0.81699997 0.48300001 1118961664
3.438 0.81550002 0.4835 1117847552
3.4510002 0.81099999 0.49000001 1117650944
3.3610001 0.83899999 0.495 1125580800
3.3886669 0.83200002 0.48366666 1119354880
3.3703334 0.85333329 0.48366666 1125515264
3.369 0.866 0.49150002 1125580800
3.3740001 0.88599998 0.486 1125515264
3.3845 0.88950002 0.49150002 1125580800
3.3870001 0.90700001 0.493 1125580800
3.3936665 0.92333335 0.49533334 1125515264
6.928 0.93900001 0.48800001 1082130432
3.4030001 0.95099998 0.49700001 1125515264
8.1099997 0.95899999 0.491 1115947008
6.0689998 0.98000002 0.491 1115684864
3.427 1.0105 0.48049998 1125580800
3.4349999 1.029 0.47999999 1125515264
3.4419999 1.038 0.48199999 1125580800
7.5869999 1.039 0.491 1090519040
3.441 1.051 0.48100001 1125580800
3.4454999 1.0645 0.48100001 1125515264
8.1280003 1.0650001 0.49700001 1119485952
3.4521999 1.0899999 0.48220006 1125515264
3.4619999 1.11 0.49200001 1125580800
8.1269999 1.1160001 0.498 1113325568
3.4705 1.1289999 0.491 1125515264
3.484 1.168 0.48699999 1125515264
3.4865 1.1984999 0.484 1125515264
3.4898336 1.206 0.48800001 1125515264
3.4925001 1.235 0.48699999 1125515264
3.5020001 1.232 0.486 1125515264
3.431 1.2495 0.48100001 1125515264
3.451 1.243 0.48300001 1125515264
3.3895001 1.2875 0.48250002 1125580800
3.3940001 1.303 0.486 1125515264
3.4083335 1.3283333 0.48699999 1125515264
3.4070001 1.348 0.495 1125515264
3.424 1.359 0.48300001 1125580800
3.414 1.369 0.49399999 1125580800
3.198 1.392 0.49399999 1114898432
3.221 1.3890001 0.493 1112539136
3.427 1.3890001 0.48500001 1125515264
3.131 1.409 0.49900001 1116209152
3.152 1.409 0.498 1113063424
3.1659999 1.403 0.49700001 1115422720
3.1900001 1.402 0.49599999 1125515264
3.421 1.403 0.49900001 1125580800
3.085 1.436 0.49900001 1120927744
3.4430001 1.426 0.48800001 1125515264
3.01 1.4505 0.49450001 1123287040
3.052 1.4450001 0.49599999 1120927744
3.447 1.457 0.49000001 1125515264
2.9335001 1.4755 0.48649999 1115619328
2.9684999 1.4675 0.49000001 1114636288
2.9920001 1.464 0.491 1122238464
2.8759999 1.494 0.48100001 1125515264
2.9054999 1.4860001 0.48299998 1125056512
2.767 1.5190001 0.49700001 1125515264
2.786 1.511 0.498 1124139008
2.855 1.503 0.47999999 1125515264
2.707 1.534 0.48899999 1124335616
2.7309999 1.5319999 0.49200001 1124532224
2.7479999 1.525 0.49399999 1123418112
2.658 1.546 0.49900001 1125580800
2.6760001 1.5525 0.48500001 1125515264
2.6919999 1.541 0.48699999 1125515264
2.677 1.572 0.486 1125515264
2.6900001 1.579 0.48199999 1125515264
2.6784999 1.5910001 0.486 1124466688
2.687 1.59 0.484 1125515264
2.6903334 1.6106668 0.48899999 1124925440
2.6935 1.6305001 0.49175 1115291648
2.7049999 1.65 0.48800001 1119354880
4.198 -1.748 0.51899999 1125515264
4.2080002 -1.743 0.5 1125515264
4.2049999 -1.71 0.514 1125515264
4.2210002 -1.706 0.50300002 1125515264
4.21 -1.671 0.50999999 1125515264
4.2329998 -1.67 0.50700003 1125515264
4.2150002 -1.653 0.51700002 1125515264
4.2290001 -1.6324999 0.50750005 1125515264
4.2290001 -1.6135 0.50749999 1125515264
4.237 -1.5929999 0.50749999 1125515264
4.2459998 -1.592 0.51200002 1125515264
4.2389998 -1.5700001 0.50199997 1125515264
4.2420001 -1.561 0.5 1125515264
4.2504997 -1.5525 0.51050001 1125515264
2.115 -1.527 0.5115 1125515264
4.25 -1.534 0.50400001 1125515264
2.096 -1.517 0.51349998 1125515264
2.11625 -1.5137501 0.505 1125580800
4.256 -1.517 0.50400001 1125515264
4.2659998 -1.518 0.51700002 1125515264
2.0569999 -1.4910001 0.50400001 1125515264
2.0655 -1.4960001 0.50600004 1116340224
4.2645001 -1.49 0.50450003 1125515264
4.2659998 -1.459 0.50800002 1125515264
4.276 -1.4220001 0.50999999 1125515264
4.2839999 -1.385 0.51200002 1125515264
4.2930002 -1.347 0.51499999 1125515264
4.3060002 -1.3443333 0.51166672 1125515264
4.296 -1.3380001 0.51800001 1125515264
4.3099999 -1.337 0.50099999 1125515264
4.303 -1.311 0.51600003 1125515264
4.3060002 -1.291 0.50566667 1125515264
2.783 -1.263 0.505 1101529088
4.3026667 -1.2703333 0.51099998 1125580800
2.7480001 -1.2555001 0.50800002 1101004800
2.7720001 -1.26 0.51499999 1101004800
4.3093333 -1.2513334 0.51233333 1125580800
4.3130002 -1.227 0.51700002 1125515264
4.3299999 -1.232 0.51300001 1125515264
4.3334999 -1.2105 0.509 1125515264
4.3460002 -1.201 0.50800002 1125515264
2.5150001 -1.184 0.505 1099956224
2.54 -1.194 0.514 1102577664
4.3499999 -1.184 0.50400001 1125515264
2.4689999 -1.1715 0.50849998 1101266944
4.3390002 -1.1799999 0.505 1125515264
4.3559999 -1.168 0.5 1125515264
4.342 -1.151 0.50300002 1125515264
4.3499999 -1.122 0.50199997 1125515264
2.2420001 -1.105 0.50199997 1100480512
2.2975001 -1.1194999 0.51249999 1100218368
2.2190001 -1.095 0.50400001 1100480512
4.3579998 -1.094 0.50099999 1125515264
2.1229999 -1.069 0.509 1099956224
2.0320001 -1.041 0.50599998 1110441984
1.971 -1.023 0.51200002 1110966272
1.9299999 -1.012 0.50199997 1109393408
1.85 -0.98799998 0.51700002 1112539136
1.786 -0.97000003 0.5 1112539136
1.819 -0.97899997 0.509 1114374144
4.454 -0.73799998 0.50099999 1125515264
4.467 -0.70099998 0.50400001 1125515264
4.4689999 -0.66299999 0.505 1125515264
4.4879999 -0.62699997 0.50800002 1125515264
4.4920001 -0.58899999 0.50999999 1125515264
8.9720001 -0.523 0.51099998 1099431936
9.0220003 -0.456 0.51300001 1100480512
2.6570001 -0.42899999 0.509 1116078080
2.6723335 -0.42933333 0.51066667 1099694080
2.681 -0.43900001 0.50700003 1096810496
2.6530001 -0.40700001 0.50700003 1125515264
2.6712501 -0.40875 0.50849998 1102118912
2.7390001 -0.40099999 0.51800001 0
2.6819999 -0.39399999 0.50800002 1077936128
2.677 -0.368 0.50599998 1102053376
2.6890001 -0.37199998 0.50950003 1099431936
2.6506665 -0.352 0.50466663 1111621632
2.632 -0.33199999 0.50400001 1125515264
2.576 -0.264 0.51800001 1125515264
2.566 -0.243 0.514 1125515264
2.5550001 -0.222 0.50999999 1125515264
2.5480001 -0.20100001 0.50700003 1125515264
2.5469999 -0.18000001 0.505 1125515264
2.5450001 -0.16 0.50300002 1125515264
2.5550001 -0.14 0.50400001 1125515264
2.5599999 -0.12 0.50300002 1125515264
2.563 -0.098999999 0.50300002 1125515264
2.5669999 -0.079000004 0.50300002 1125515264
2.5699999 -0.057999998 0.50199997 1125515264
2.5799999 -0.037 0.50300002 1125515264
2.589 -0.016000001 0.50400001 1125515264
2.619 0.0040000002 0.509 1125515264
2.622 0.013 0.50099999 1125515264
2.628 0.030000001 0.50650001 1118109696
2.625 0.052499998 0.50549996 1103691776
2.631 0.068000004 0.50999999 1098907648
2.645 0.075000003 0.50099999 1065353216
9.1099997 0.199 0.51200002 1096810496
9.2440004 0.42500001 0.51899999 1095761920
9.2329998 0.49000001 0.51800001 1096810496
9.2399998 0.55500001 0.51800001 1096810496
9.2229996 0.61799997 0.51700002 1095761920
3.9100001 0.65700001 0.50400001 1112801280
3.852 0.67900002 0.50999999 1109655552
3.905 0.66299999 0.51499999 1109393408
9.1689997 0.67699999 0.514 1092616192
3.7950001 0.69499999 0.505 1110179840
3.803 0.68900001 0.51800001 1122893824
3.7490001 0.70749998 0.50699997 1109852160
3.7665 0.70599997 0.51600003 1110310912
3.6570001 0.736 0.50400001 1114898432
3.665 0.73799998 0.514 1115947008
3.7036667 0.72399998 0.50800008 1112932352
3.6110001 0.755 0.50300002 1115357184
3.655 0.745 0.505 1110966272
3.665 0.741 0.51499999 1112539136
6.862 0.74000001 0.50800002 1114636288
9.1590004 0.74000001 0.51300001 1092616192
3.5510001 0.77899998 0.50400001 1115815936
3.605 0.75999999 0.509 1112801280
6.8060002 0.75999999 0.51899999 1122238464
7.9400001 0.76200002 0.50800002 1114112000
3.5120001 0.79299998 0.514 1117913088
6.7259998 0.79500002 0.51499999 1073741824
6.8000002 0.78799999 0.50400001 1073741824
3.4630001 0.81 0.50800002 1123024896
9.1689997 0.80299997 0.514 1090519040
3.3959999 0.82599998 0.51599997 1109655552
3.4119999 0.82499999 0.50099999 1124728832
6.7540002 0.83700001 0.50099999 1109131264
7.9580002 0.82800001 0.50999999 1122107392
3.368 0.85000002 0.51099998 1125515264
6.7470002 0.84100002 0.51800001 1118961664
3.3765001 0.88950002 0.50549996 1125515264
6.7670002 0.89300001 0.50300002 1108869120
3.392 0.91900003 0.51300001 1125515264
3.3870001 0.92400002 0.50300002 1125580800
7.2290001 0.92699999 0.50800002 1106771968
3.3929999 0.95200002 0.505 1125580800
3.4083335 0.954 0.50599998 1125580800
3.4170001 0.96799999 0.50700003 1125580800
3.4133999 0.98620003 0.50839996 1125515264
9.1210003 0.98199999 0.51200002 1090519040
3.4223335 1.0096667 0.51166666 1125515264
3.434 1.0265 0.514 1125515264
8.0120001 1.03 0.51700002 1112276992
3.4335001 1.0439999 0.514 1125515264
3.4400001 1.0599999 0.51599997 1125580800
3.431 1.066 0.51899999 1125580800
3.4435 1.0699999 0.51699996 1125515264
3.451 1.096 0.51700002 1125580800
3.471 1.1355 0.51049995 1125515264
3.4744999 1.1524999 0.509 1125515264
3.473 1.168 0.51899999 1125515264
3.48 1.1670001 0.51599997 1125515264
8.158 1.17 0.50199997 1119879168
3.483 1.199 0.51800001 1125515264
3.4881999 1.2078 0.50839996 1125515264
3.477 1.2359999 0.51800001 1125515264
8.1660004 1.222 0.50400001 1119617024
3.4230001 1.249 0.509 1125515264
3.3840001 1.267 0.50300002 1125580800
8.1350002 1.266 0.50300002 1122107392
3.3929999 1.303 0.50400001 1125580800
3.4089999 1.342 0.505 1125580800
3.4170001 1.378 0.50599998 1125580800
3.4200001 1.373 0.50099999 1125580800
3.221 1.392 0.514 1115160576
3.4230001 1.392 0.505 1125515264
3.1099999 1.418 0.50300002 1118830592
3.1259999 1.4165 0.509 1117454336
3.148 1.413 0.50599998 1116340224
3.1960001 1.409 0.51200002 1125515264
3.4285002 1.4145 0.50849998 1125515264
3.0713332 1.4306666 0.51500005 1117650944
3.0866668 1.4263334 0.50933331 1118371840
3.1085 1.4235001 0.50450003 1119617024
3.4400001 1.4349999 0.51499999 1125515264
2.9979999 1.457 0.51800001 1118044160
3.0469999 1.4400001 0.50400001 1121583104
3.4330001 1.4400001 0.50599998 1125580800
3.4419999 1.454 0.514 1125515264
2.9145 1.4775 0.51349998 1114439680
2.9465001 1.4685 0.51600003 1115488256
2.9660001 1.4630001 0.51599997 1118830592
3.4289999 1.471 0.509 1125580800
2.8525 1.4935 0.509 1116078080
2.875 1.482 0.51300001 1125515264
2.8840001 1.4859999 0.509 1123680256
2.779 1.512 0.50700003 1125515264
2.7909999 1.512 0.51700002 1124270080
2.8080001 1.5025001 0.50450003 1116143616
2.8340001 1.5 0.50400001 1123155968
2.697 1.538 0.50300002 1121976320
2.7255001 1.5320001 0.50600004 1115488256
2.756 1.525 0.50700003 1125515264
2.763 1.524 0.51300001 1122238464
2.6884999 1.5485001 0.50199997 1125515264
2.6700001 1.5755 0.50300002 1125449728
2.6789999 1.607 0.50999999 1125515264
2.681 1.604 0.505 1119748096
2.6875 1.635 0.5115 1116340224
2.717 1.659 0.50599998 1118830592
4.1760001 -1.827 0.53600001 1125515264
4.1739998 -1.8200001 0.52600002 1125515264
4.184 -1.7880001 0.52700001 1125515264
4.1950002 -1.7589999 0.52899998 1125515264
4.1999998 -1.723 0.52499998 1125515264
4.2090001 -1.689 0.52100003 1125515264
2.1104999 -1.5239999 0.52250004 1125515264
2.115 -1.5159999 0.52599996 1125580800
2.1136665 -1.495 0.52700001 1125580800
2.1210001 -1.483 0.52999997 1125580800
2.119 -1.472 0.52899998 1125580800
2.1240001 -1.464 0.52899998 1125580800
4.2684999 -1.478 0.52899998 1125515264
2.1294999 -1.451 0.52999997 1125580800
4.2729998 -1.457 0.53399998 1125515264
4.283 -1.442 0.523 1125515264
2.1329999 -1.4275 0.52899998 1125580800
4.2719998 -1.433 0.52999997 1125515264
2.1359999 -1.409 0.528 1125580800
4.277 -1.41 0.52700001 1125515264
4.2930002 -1.405 0.52600002 1125515264
2.1430001 -1.392 0.52750003 1125580800
4.2859998 -1.387 0.52399999 1125515264
2.152 -1.374 0.52700001 1125580800
2.1600001 -1.363 0.52700001 1125580800
4.2940001 -1.364 0.52100003 1125515264
4.302 -1.368 0.52899998 1125515264
2.158 -1.345 0.52499998 1125580800
4.3057499 -1.34975 0.52999997 1125515264
2.1630001 -1.331 0.52399999 1125580800
4.3049998 -1.3279999 0.53100002 1125515264
2.168 -1.317 0.523 1125580800
2.1689999 -1.3 0.52100003 1125580800
4.3225002 -1.2875 0.53500003 1125515264
4.289 -1.2589999 0.52600002 1125711872
4.3249998 -1.2506667 0.52700001 1125515264
4.3239999 -1.2359999 0.52200001 1125515264
2.566 -1.2 0.52600002 1099956224
2.6199999 -1.217 0.53049999 1101529088
4.3169999 -1.2130001 0.51999998 1125515264
