# .PCD v0.7 - Point Cloud Data file format
VERSION 0.7
FIELDS x y z rgb
SIZE 4 4 4 4
TYPE F F F U
COUNT 1 1 1 1
WIDTH 1279
HEIGHT 1
VIEWPOINT 0 0 0 1 0 0 0
POINTS 1279
DATA ascii
2.6170001 0.69199997 0.199 1115684864
2.615 0.76999998 0.184 1116798976
2.6110001 0.79399997 0.18533333 1117978624
2.6285713 0.78728575 0.19428572 1118961664
2.5869999 0.80000001 0.18099999 1107558400
2.602 0.82800001 0.184 1108082688
2.602 0.852 0.18700001 1116471296
2.6110001 0.87800002 0.189 1115684864
2.6210001 0.90600002 0.192 1115160576
2.6300001 0.93300003 0.19499999 1113587712
2.6400001 0.96100003 0.199 1115160576
2.674 1.164 0.198 1114898432
2.6760001 1.191 0.197 1115815936
2.6459999 1.216 0.18099999 1115947008
2.6789999 1.219 0.19599999 1116995584
2.6570001 1.247 0.184 1113325568
2.6800001 1.2460001 0.19499999 1114636288
2.6705 1.2744999 0.191 1112735744
2.678 1.299 0.192 1116209152
2.668 1.3049999 0.191 1111752704
2.677 1.335 0.19400001 1117126656
2.6860001 1.33 0.192 1121583104
2.684 1.3559999 0.191 1121583104
2.6849999 1.365 0.198 1116864512
2.6830001 1.382 0.19 1118306304
2.6819999 1.408 0.189 1118306304
2.6849999 1.437 0.18799999 1117388800
2.6889999 1.466 0.18799999 1116995584
2.6889999 1.493 0.18700001 1117388800
2.6900001 1.521 0.18700001 1118175232
2.694 1.551 0.18700001 1117650944
2.6949999 1.5779999 0.186 1117913088
2.698 1.6059999 0.186 1115947008
2.7 1.6339999 0.186 1112014848
2.7090001 1.6670001 0.18700001 1109655552
2.71 1.694 0.186 1108606976
2.6900001 1.7079999 0.18099999 1108606976
2.697 1.737 0.184 1110441984
2.7160001 1.724 0.18700001 1108606976
2.7119999 1.747 0.18700001 1108344832
2.7090001 1.7704999 0.18700001 1108869120
2.711 1.7970001 0.18799999 1108606976
2.7179999 1.802 0.18799999 1107296256
2.7179999 1.827 0.19 1115160576
2.723 1.831 0.189 1109655552
2.7219999 1.853 0.192 1113325568
2.7290001 1.86 0.19 1108082688
2.73 1.8840001 0.1925 1109524480
2.7335 1.9100001 0.1935 1108475904
2.734 1.9349999 0.19499999 1108475904
2.7420001 1.9630001 0.1965 1099825152
2.7420001 1.985 0.19749999 1099038720
2.7509999 2.016 0.198 1106247680
2.414 -1.878 0.219 1125318656
2.415 -1.859 0.219 1125253120
2.4165001 -1.84 0.21799999 1124401152
2.4124999 -1.8164999 0.2165 1119617024
2.4159999 -1.7975 0.2155 1124859904
2.418 -1.778 0.215 1121648640
2.418 -1.755 0.214 1121583104
2.4219999 -1.758 0.214 1117913088
2.1919999 -1.723 0.20100001 1097859072
2.4205 -1.735 0.213 1119354880
2.418 -1.709 0.211 1118437376
2.421 -1.712 0.213 1117913088
2.4205 -1.688 0.211 1118896128
2.415 -1.661 0.208 1119617024
2.4230001 -1.6670001 0.212 1116471296
2.427 -1.646 0.212 1117650944
2.418 -1.6390001 0.207 1119879168
2.427 -1.622 0.212 1117519872
2.4189999 -1.6160001 0.205 1120272384
2.4254999 -1.596 0.2075 1119748096
2.4130001 -1.563 0.2 1122762752
2.4330001 -1.577 0.212 1117782016
2.4530001 -1.561 0.219 1117650944
2.437 -1.556 0.213 1119223808
2.447 -1.536 0.2155 1120010240
1.875 -1.5089999 0.20900001 1097859072
2.4495001 -1.5139999 0.2155 1118371840
2.4484999 -1.49 0.2155 1118633984
2.4499998 -1.4665 0.2155 1119813632
2.451 -1.448 0.21600001 1116340224
2.46 -1.444 0.21600001 1123287040
2.457 -1.428 0.21600001 1118306304
2.454 -1.415 0.21699999 1122500608
2.4630001 -1.409 0.21600001 1118175232
2.4660001 -1.392 0.21700001 1113128960
2.4689999 -1.369 0.21799999 1120862208
2.4679999 -1.341 0.21600001 1118175232
2.4690001 -1.318 0.21699999 1118437376
2.4430001 -1.291 0.21799999 1116995584
2.471 -1.295 0.21699999 1118568448
2.45 -1.27 0.21600001 1125515264
2.4749999 -1.272 0.21799999 1118830592
2.4760001 -1.249 0.21799999 1119617024
2.438 -1.238 0.213 1095761920
2.4590001 -1.223 0.212 1124335616
2.4849999 -1.229 0.219 1120403456
2.4579999 -1.198 0.20900001 1121452032
2.454 -1.171 0.206 1121976320
2.4530001 -1.146 0.20299999 1122631680
2.4489999 -1.12 0.2 1121058816
2.4890001 -1.018 0.21699999 1116078080
2.49 -0.995 0.215 1118044160
2.4860001 -0.97000003 0.212 1117519872
2.4849999 -0.94700003 0.20999999 1116995584
2.4820001 -0.92299998 0.207 1115815936
2.4844999 -0.89649999 0.20300001 1115881472
2.4860001 -0.87349999 0.2025 1116930048
2.4905 -0.85249996 0.2025 1117126656
2.493 -0.82499999 0.206 1110441984
2.503 -0.80500001 0.208 1111228416
2.507 -0.78200001 0.20900001 1112014848
2.51 -0.75999999 0.211 1110704128
2.5139999 -0.73799998 0.212 1109917696
2.494 -0.70599997 0.2 1120665600
2.5080001 -0.70933336 0.207 1118830592
2.52475 -0.71000004 0.21574999 1115684864
2.516 -0.68650001 0.213 1120796672
2.526 -0.69300002 0.21633333 1115029504
2.5076668 -0.66933328 0.205 1123024896
2.5279999 -0.67400002 0.2155 1112932352
2.5279999 -0.65200001 0.21266668 1114046464
2.50775 -0.63075 0.20325001 1117257728
2.5113332 -0.61066669 0.20566666 1117126656
2.5139999 -0.59299999 0.207 1117061120
2.51 -0.57300001 0.204 1117388800
2.523 -0.56599998 0.212 1117650944
2.5215001 -0.54750001 0.213 1117782016
2.527 -0.53100002 0.214 1116602368
2.5409999 -0.523 0.219 1104674816
2.5244999 -0.51100004 0.21450001 1116930048
2.54 -0.50099999 0.21799999 1103101952
2.53 -0.49200001 0.215 1116995584
2.5439999 -0.48100001 0.21699999 1103626240
2.533 -0.4725 0.2155 1117454336
2.536 -0.45199999 0.21600001 1117388800
2.543 -0.45899999 0.21600001 1103101952
2.536 -0.43000001 0.2155 1117192192
2.543 -0.43799999 0.215 1102577664
2.5369999 -0.40799999 0.215 1116995584
2.5469999 -0.417 0.215 1102577664
2.5434999 -0.39450002 0.21450001 1101660160
2.5380001 -0.361 0.214 1117388800
2.5440001 -0.37599999 0.21450001 1101987840
2.5404999 -0.3495 0.213 1101004800
2.5455 -0.33149999 0.213 1101070336
2.549 -0.31349999 0.213 1101201408
2.5489998 -0.29033333 0.21233334 1101398016
2.5495 -0.26800001 0.21149999 1100546048
2.5510001 -0.24900001 0.211 1101266944
2.546 -0.229 0.208 1117519872
2.566 -0.23199999 0.214 1102053376
2.5480001 -0.212 0.208 1116995584
2.5650001 -0.212 0.214 1102053376
2.5469999 -0.19400001 0.207 1114112000
2.569 -0.192 0.215 1103101952
2.5480001 -0.177 0.206 1114112000
2.5710001 -0.17200001 0.215 1102053376
2.5450001 -0.15000001 0.20449999 1113980928
2.572 -0.15099999 0.21600001 1103101952
2.546 -0.123 0.20299999 1114636288
2.573 -0.132 0.21600001 1102577664
2.5480001 -0.104 0.20200001 1113325568
2.5799999 -0.112 0.21799999 1102577664
2.5480001 -0.086000003 0.20100001 1114112000
2.5829999 -0.092 0.21799999 1103101952
2.549 -0.068000004 0.20100001 1113849856
2.5840001 -0.071999997 0.219 1103626240
2.549 -0.048999999 0.2 1114898432
2.5799999 0.266 0.2 1114374144
2.5810001 0.285 0.2 1112276992
2.5865002 0.30299997 0.2015 1114767360
2.5870001 0.32600001 0.20200001 1116340224
2.5925 0.3475 0.204 1116078080
2.6010001 0.35699999 0.207 1116078080
2.5940001 0.373 0.204 1118044160
2.605 0.375 0.208 1115160576
2.5880001 0.389 0.204 1118306304
2.6029999 0.39199999 0.20900001 1115815936
2.6040001 0.40850002 0.208 1117519872
2.5880001 0.43700001 0.2 1102577664
2.6075001 0.42550001 0.2095 1118175232
2.6122499 0.45050001 0.21124999 1118306304
2.5940001 0.46000001 0.20100001 1103626240
2.6110001 0.47499999 0.211 1124401152
2.6229999 0.47600001 0.215 1116995584
2.592 0.48100001 0.20200001 1103101952
2.6110001 0.491 0.212 1125515264
2.6270001 0.49200001 0.21699999 1117257728
2.6029999 0.505 0.204 1104150528
2.6340001 0.509 0.21799999 1117519872
2.6040001 0.528 0.205 1103626240
2.6325002 0.53199995 0.21849999 1117585408
2.6159999 0.55199999 0.207 1104150528
2.6240001 0.55400002 0.219 1117650944
2.619 0.57599998 0.20900001 1103626240
2.625 0.60000002 0.20999999 1105199104
2.6270001 0.62300003 0.212 1104150528
2.6300001 0.64600003 0.214 1104674816
2.6370001 0.671 0.21600001 1105199104
2.6454999 0.69700003 0.21849999 1103233024
2.6269999 0.71000004 0.204 1116012544
2.6489999 0.708 0.21799999 1118830592
2.6484001 0.73039997 0.2138 1117519872
2.6513336 0.74966669 0.21333332 1117388800
2.6670001 0.75099999 0.21799999 1104674816
2.635 0.77100003 0.204 1116733440
2.6450002 0.76899999 0.20600002 1117257728
2.664 0.77499998 0.21699999 1103626240
2.6470001 0.80250001 0.20199999 1117847552
2.664 0.81050003 0.21275 1100611584
2.6725001 0.82299995 0.21700001 1101332480
2.675 0.85399997 0.214 1110966272
2.674 0.87800002 0.213 1111490560
2.677 0.90399998 0.212 1113587712
2.6800001 0.93099999 0.211 1113587712
2.6800001 0.95700002 0.20900001 1113587712
2.648 0.98900002 0.20200001 1115947008
2.677 0.98199999 0.208 1114374144
2.661 1.0190001 0.205 1114374144
2.6800001 1.0089999 0.206 1114636288
2.675 1.0319999 0.205 1114374144
2.6729999 1.0534999 0.206 1115029504
2.671 1.073 0.212 1112276992
2.678 1.086 0.20200001 1115684864
2.677 1.112 0.20100001 1115684864
2.681 1.103 0.215 1112801280
2.678 1.1390001 0.2 1118175232
2.6930001 1.133 0.219 1114636288
2.6930001 1.396 0.20100001 1116209152
2.698 1.425 0.204 1113063424
2.7119999 1.459 0.208 1113325568
2.721 1.49 0.211 1109131264
2.7320001 1.523 0.215 1112801280
2.737 1.553 0.21799999 1109917696
2.747 2.0090001 0.2 1107820544
2.7509999 2.0349998 0.20050001 1098776576
2.756 2.0569999 0.20100001 1107558400
2.7585001 2.0710001 0.20200001 1098514432
2.7579999 2.0969999 0.20200001 1107296256
2.7639999 2.0880001 0.204 1105199104
2.767 2.1155 0.204 1098514432
2.773 2.132 0.208 1106247680
2.7713335 2.1499999 0.205 1095499776
2.767 2.171 0.20100001 1107296256
2.78 2.171 0.213 1105723392
2.7665 2.1919999 0.20050001 1100218368
2.796 2.1989999 0.21600001 1105199104
2.796 2.214 0.21799999 1100480512
2.4100001 -1.875 0.22 1125515264
2.451 -1.79 0.23800001 1117847552
2.4549999 -1.771 0.235 1118044160
2.4549999 -1.755 0.233 1115160576
2.4565001 -1.7305 0.23100001 1116602368
2.4519999 -1.701 0.228 1114898432
2.4505 -1.6715 0.22549999 1115619328
2.45 -1.642 0.223 1116209152
2.0539999 -1.638 0.229 1097859072
2.4560001 -1.626 0.223 1118699520
2.4519999 -1.603 0.221 1118044160
2.45 -1.581 0.22 1115815936
2.483 -1.466 0.23899999 1122500608
2.487 -1.443 0.237 1123155968
2.4779999 -1.4119999 0.233 1123680256
2.4719999 -1.383 0.23 1125515264
2.4705 -1.352 0.2235 1116143616
2.454 -1.322 0.222 1098907648
2.4719999 -1.324 0.221 1121058816
2.4790001 -1.302 0.223 1122107392
2.4890001 -1.2819999 0.22499999 1124204544
2.4849999 -1.255 0.22499999 1118175232
2.4949999 -1.235 0.227 1118961664
2.487 -1.205 0.22 1119748096
2.5035 -1.2125001 0.234 1121124352
2.4920001 -1.183 0.221 1120403456
2.5055001 -1.189 0.2335 1121255424
2.4960001 -1.161 0.222 1118306304
2.5035 -1.164 0.23249999 1117913088
2.5114999 -1.143 0.2325 1119289344
2.5 -1.138 0.223 1120403456
2.523 -1.122 0.236 1121189888
2.4960001 -1.114 0.228 1116864512
2.5039999 -1.115 0.22400001 1116340224
2.4979999 -1.091 0.22499999 1116995584
2.5050001 -1.091 0.22499999 1116340224
2.5250001 -1.098 0.237 1119223808
2.497 -1.068 0.223 1117782016
2.5139999 -1.0700001 0.227 1117388800
2.526 -1.074 0.23800001 1118961664
2.4960001 -1.044 0.22 1115947008
2.513 -1.045 0.228 1116602368
2.52 -1.023 0.229 1116602368
2.523 -1 0.23 1114112000
2.529 -0.97799999 0.23199999 1115947008
2.5339999 -0.95499998 0.233 1115160576
2.5380001 -0.93199998 0.235 1114374144
2.543 -0.91000003 0.236 1114636288
2.549 -0.88700002 0.23800001 1113849856
2.552 -0.78933334 0.23666668 1113194496
2.549 -0.76950002 0.234 1101266944
2.539 -0.74299997 0.226 1115422720
2.5475001 -0.75150001 0.2315 1102249984
2.539 -0.73100001 0.223 1115947008
2.5495 -0.722 0.23449999 1105133568
2.5349998 -0.70875001 0.22150001 1118371840
2.5449998 -0.70919997 0.22920001 1119813632
2.5513334 -0.69633335 0.23333333 1101398016
2.5610001 -0.68800002 0.23899999 1116864512
2.5450001 -0.67699999 0.229 1104674816
2.5420001 -0.65399998 0.227 1102577664
2.536 -0.63 0.22 1109917696
2.5420001 -0.63200003 0.226 1103626240
2.5419998 -0.60899997 0.2225 1099563008
2.5455 -0.588 0.223 1098383360
2.5444999 -0.56550002 0.2225 1098645504
2.5440001 -0.54299998 0.2225 1098252288
2.5510001 -0.52100003 0.226 1109655552
2.5550001 -0.5 0.227 1110179840
2.559 -0.47799999 0.228 1107296256
2.5639999 -0.45699999 0.229 1108869120
2.585 -0.456 0.23899999 1100480512
2.5650001 -0.435 0.23 1109393408
2.5885 -0.43000001 0.2385 1125515264
2.5669999 -0.414 0.23100001 1107558400
2.5899999 -0.403 0.23800001 1125515264
2.573 -0.39300001 0.23199999 1109131264
2.596 -0.38499999 0.23800001 1125515264
2.5769999 -0.37200001 0.233 1108606976
2.5910001 -0.366 0.237 1123811328
2.5879998 -0.34850001 0.23550001 1110704128
2.5900002 -0.3285 0.23550001 1111097344
2.5885 -0.308 0.23550001 1115815936
2.5915 -0.28799999 0.23550001 1112145920
2.585 -0.26499999 0.236 1115160576
2.5999999 -0.271 0.236 1115160576
2.592 -0.244 0.237 1110441984
2.602 -0.25099999 0.235 1124139008
2.599 -0.22400001 0.23800001 1108082688
2.6070001 -0.23199999 0.236 1125515264
2.6015 -0.2075 0.23649999 1115357184
2.6069999 -0.18700001 0.23699999 1109524480
2.612 -0.17200001 0.236 1109131264
2.6159999 -0.152 0.236 1109655552
2.6110001 -0.132 0.235 1110179840
2.6129999 -0.111 0.235 1110179840
2.6129999 -0.090999998 0.235 1110441984
2.618 -0.071000002 0.235 1109393408
2.589 -0.052000001 0.22 1104674816
2.618 -0.050000001 0.235 1108869120
2.5940001 -0.033 0.222 1103101952
2.622 -0.028999999 0.235 1106771968
2.599 -0.013 0.223 1103626240
2.622 -0.0080000004 0.235 1109131264
2.599 0.0060000001 0.22400001 1109131264
2.6289999 0.012 0.236 1109131264
2.6040001 0.025 0.22499999 1109131264
2.631 0.034000002 0.236 1108344832
2.608 0.045000002 0.227 1107558400
2.631 0.055 0.236 1105199104
2.6140001 0.064999998 0.228 1107820544
2.632 0.077 0.235 1108869120
2.618 0.083999999 0.23 1110704128
2.6359999 0.097999997 0.236 1109131264
2.6229999 0.103 0.23100001 1109917696
2.6289999 0.1215 0.234 1108869120
2.632 0.142 0.23449999 1108869120
2.6329999 0.16249999 0.23550001 1098907648
2.632 0.18000001 0.237 1110966272
2.6405001 0.1925 0.23699999 1098383360
2.6400001 0.208 0.234 1104150528
2.638 0.23 0.234 1109131264
2.6359999 0.252 0.233 1107820544
2.641 0.27500001 0.233 1108344832
2.645 0.29800001 0.233 1108082688
2.642 0.32100001 0.23199999 1103101952
2.645 0.34400001 0.23199999 1103101952
2.6489999 0.36700001 0.23199999 1104150528
2.6500001 0.38999999 0.23100001 1104150528
2.652 0.414 0.23100001 1103626240
2.655 0.43700001 0.23 1104150528
2.6530001 0.46000001 0.229 1104150528
2.652 0.484 0.228 1103101952
2.6570001 0.50800002 0.228 1103626240
2.6600001 0.53200001 0.227 1104674816
2.635 0.55500001 0.22 1116733440
2.6589999 0.55599999 0.226 1104150528
2.641 0.5715 0.22150001 1112473600
2.6446667 0.59066671 0.222 1118502912
2.665 0.58099997 0.226 1103101952
2.6533334 0.61199999 0.226 1119158272
2.6630001 0.60399997 0.22499999 1103101952
2.6465001 0.63300002 0.221 1118437376
2.6634998 0.63100004 0.228 1102970880
2.6470001 0.65200001 0.221 1119223808
2.6695001 0.6505 0.229 1103036416
2.6500001 0.66999996 0.22049999 1117716480
2.664 0.67699999 0.222 1103101952
2.6819999 0.66399997 0.23800001 1118306304
2.654 0.68800002 0.22 1118437376
2.6670001 0.70200002 0.221 1103626240
2.6570001 0.72399998 0.221 1106771968
2.6659999 0.727 0.22 1104674816
2.664 0.74900001 0.22400001 1106771968
2.6670001 0.7705 0.22400001 1099038720
2.6895001 0.79299998 0.2335 1112408064
2.674 0.80000001 0.229 1105199104
2.701 0.80500001 0.23899999 1111490560
2.677 0.82499999 0.23100001 1104674816
2.6920002 0.82466668 0.22666667 1116602368
2.7055001 0.82599998 0.23550001 1117061120
2.688 0.85299999 0.234 1107558400
2.6919999 0.87900001 0.237 1110704128
2.698 1.161 0.222 1108606976
2.7049999 1.1900001 0.226 1110704128
2.7149999 1.221 0.229 1111228416
2.727 1.253 0.233 1108606976
2.7320001 1.2819999 0.237 1107820544
2.7539999 1.589 0.222 1107558400
2.7590001 1.619 0.22499999 1108344832
2.7650001 1.65 0.228 1108082688
2.773 1.681 0.23100001 1107558400
2.779 1.712 0.234 1107296256
2.7909999 1.7460001 0.23800001 1106771968
2.802 2.2309999 0.221 1092616192
2.4755001 -1.8935001 0.25749999 1105985536
2.4645 -1.87 0.252 1108606976
2.454 -1.848 0.248 1117257728
2.4545 -1.8315001 0.24450001 1119748096
2.289 -1.808 0.255 1097859072
2.4389999 -1.802 0.23999999 1118830592
2.493 -1.651 0.257 1117257728
2.4979999 -1.63 0.25600001 1119748096
2.49 -1.599 0.252 1118568448
2.484 -1.5700001 0.249 1118437376
2.4879999 -1.5470001 0.24699999 1121976320
2.487 -1.52 0.245 1119617024
2.484 -1.493 0.242 1121189888
2.53 -1.391 0.259 1118306304
2.5190001 -1.3609999 0.25600001 1120272384
2.5179999 -1.337 0.25299999 1119223808
2.5190001 -1.314 0.25099999 1119748096
2.517 -1.289 0.248 1119879168
2.5120001 -1.263 0.245 1120403456
2.506 -1.237 0.242 1119223808
2.5309999 -1.051 0.23999999 1118437376
2.5409999 -1.03 0.242 1119354880
2.5420001 -1.006 0.243 1118699520
2.5480001 -0.98299998 0.245 1120403456
2.553 -0.96100003 0.24699999 1120010240
2.569 -0.96100003 0.25799999 1115684864
2.556 -0.93800002 0.249 1119092736
2.5710001 -0.93800002 0.255 1116602368
2.5644999 -0.9145 0.25150001 1117192192
2.5580001 -0.88700002 0.249 1111490560
2.5639999 -0.89200002 0.252 1119354880
2.553 -0.86400002 0.23999999 1115947008
2.5669999 -0.86800003 0.25049999 1116209152
2.5569999 -0.84100002 0.241 1116340224
2.5683334 -0.84500003 0.25133333 1114636288
2.5799999 -0.85799998 0.25799999 1111752704
2.5680001 -0.833 0.24899998 1113718784
2.5799999 -0.82499999 0.257 1116078080
2.5555 -0.81050003 0.241 1114505216
2.563 -0.81850004 0.24349999 1115095040
2.585 -0.80299997 0.259 1116471296
2.5580001 -0.79299998 0.243 1114112000
2.572 -0.773 0.24600001 1115947008
2.5699999 -0.74900001 0.24699999 1114374144
2.5703998 -0.72839999 0.24659999 1118699520
2.585 -0.73300004 0.257 1118830592
2.5799999 -0.704 0.25 1107820544
2.5610001 -0.68199998 0.241 1116733440
2.586 -0.68099999 0.252 1107558400
2.5699999 -0.66899997 0.24566667 1117257728
2.6029999 -0.662 0.257 1113849856
2.5840001 -0.65366668 0.25166667 1114439680
2.602 -0.64600003 0.255 1115160576
2.5915 -0.63325 0.25424999 1101791232
2.5955 -0.61374998 0.25575 1101856768
2.598 -0.59249997 0.25349998 1101791232
2.592 -0.57099998 0.2475 1116209152
2.6059999 -0.56599998 0.259 1104150528
2.5880001 -0.54500002 0.245 1116471296
2.5869999 -0.52700001 0.244 1117257728
2.585 -0.50999999 0.242 1120927744
2.5840001 -0.49200001 0.241 1121058816
2.586 -0.47400001 0.241 1125515264
2.6259999 -0.278 0.259 1116078080
2.6275001 -0.25099999 0.25749999 1115947008
2.6300001 -0.22499999 0.257 1116471296
2.6270001 -0.206 0.255 1116209152
2.631 -0.18799999 0.255 1114898432
2.612 -0.162 0.23999999 1107296256
2.628 -0.169 0.25299999 1115815936
2.612 -0.141 0.23999999 1107820544
2.6289999 -0.15099999 0.25299999 1114112000
2.6300001 -0.132 0.252 1116340224
2.6129999 -0.12 0.23999999 1108082688
2.6229999 -0.113 0.25 1115947008
2.6170001 -0.098999999 0.241 1108869120
2.622 -0.093999997 0.249 1115815936
2.615 -0.079000004 0.241 1109393408
2.625 -0.075000003 0.248 1116078080
2.6224999 -0.057 0.2445 1113325568
2.6240001 -0.037500001 0.2445 1113784320
2.6230001 -0.0175 0.244 1114046464
2.625 0.0015 0.24349999 1113325568
2.625 0.021499999 0.243 1113849856
2.6324999 0.041500002 0.244 1114112000
2.632 0.061499998 0.24349999 1112276992
2.6370001 0.082000002 0.244 1111752704
2.641 0.082000002 0.244 1113587712
2.638 0.102 0.243 1112539136
2.6429999 0.102 0.244 1113587712
2.6329999 0.122 0.243 1112801280
2.641 0.122 0.245 1113587712
2.635 0.14300001 0.242 1110966272
2.6459999 0.142 0.245 1113849856
2.632 0.163 0.242 1111752704
2.645 0.161 0.245 1113849856
2.6359999 0.184 0.242 1109917696
2.6459999 0.18000001 0.24600001 1112539136
2.6359999 0.205 0.242 1109917696
2.6496668 0.21233332 0.24433333 1113718784
2.6370001 0.226 0.242 1110179840
2.651 0.23750001 0.245 1112670208
2.638 0.24699999 0.242 1109917696
2.654 0.257 0.24599999 1103298560
2.6389999 0.26800001 0.242 1110179840
2.6570001 0.27599999 0.2475 1112014848
2.6389999 0.289 0.242 1111228416
2.6615 0.29449999 0.24849999 1111752704
2.6529999 0.3125 0.24599999 1101725696
2.6700001 0.31400001 0.25 1107820544
2.6429999 0.333 0.243 1107296256
2.671 0.33199999 0.25099999 1113063424
2.655 0.35600001 0.245 1108869120
2.6719999 0.34999999 0.25099999 1118699520
2.681 0.35100001 0.25400001 1113587712
2.658 0.37799999 0.245 1109393408
2.6730001 0.36899999 0.252 1117126656
2.681 0.36899999 0.255 1114374144
2.674 0.38600001 0.25299999 1118830592
2.6849999 0.38699999 0.257 1112276992
2.6559999 0.40000001 0.24600001 1107296256
2.6789999 0.405 0.25400001 1120796672
2.6860001 0.405 0.25799999 1113325568
2.6705 0.42250001 0.25099999 1114963968
2.6700001 0.447 0.249 1109655552
2.6865001 0.449 0.25749999 1120534528
2.675 0.47 0.25 1109655552
2.6900001 0.47499999 0.259 1121845248
2.6760001 0.493 0.25099999 1110704128
2.681 0.51700002 0.25299999 1110179840
2.691 0.542 0.255 1109917696
2.6989999 0.56699997 0.257 1108869120
2.7049999 0.59200001 0.259 1105199104
2.6900001 0.67799997 0.241 1117388800
2.6960001 0.69199997 0.244 1116209152
2.7045 0.71099997 0.24849999 1116995584
2.721 0.73199999 0.25400001 1116602368
2.724 0.74299997 0.25799999 1116471296
2.7390001 0.796 0.259 1109917696
2.7116668 0.81633329 0.24533333 1112604672
2.7304997 0.80949998 0.25299999 1110769664
2.7154999 0.82350004 0.24149999 1115684864
2.724 0.82749999 0.25299999 1110441984
2.704 0.90799999 0.241 1116602368
2.7179999 0.93699998 0.244 1116209152
2.7190001 0.963 0.24699999 1116078080
2.7260001 0.991 0.25 1119748096
2.7520001 1.012 0.259 1108082688
2.7349999 1.02 0.25400001 1118437376
2.7520001 1.038 0.25799999 1108606976
2.7420001 1.049 0.25799999 1117782016
2.753 1.066 0.257 1108869120
2.753 1.092 0.25600001 1109131264
2.7479999 1.117 0.25400001 1107558400
2.756 1.148 0.25299999 1109131264
2.7579999 1.175 0.252 1107820544
2.756 1.202 0.25099999 1108082688
2.7620001 1.2309999 0.25099999 1108606976
2.757 1.257 0.249 1107558400
2.7620001 1.286 0.249 1107820544
2.7409999 1.313 0.241 1107820544
2.7639999 1.3150001 0.248 1107820544
2.7520001 1.345 0.245 1107296256
2.766 1.344 0.24699999 1109655552
2.7690001 1.373 0.24600001 1114112000
2.7679999 1.38 0.249 1108082688
2.7750001 1.4065 0.24950001 1112408064
2.7750001 1.431 0.245 1114636288
2.77 1.456 0.244 1115422720
2.7839999 1.443 0.257 1113063424
2.7739999 1.4859999 0.244 1113587712
2.7739999 1.515 0.243 1111228416
2.7850001 1.549 0.244 1108082688
2.7920001 1.58 0.244 1108082688
2.789 1.607 0.244 1108082688
2.7909999 1.636 0.244 1108082688
2.7980001 1.6670001 0.244 1107558400
2.7980001 1.6950001 0.244 1107820544
2.799 1.724 0.244 1108082688
2.806 1.755 0.245 1107820544
2.796 1.775 0.23999999 1107296256
2.8050001 1.7819999 0.245 1107296256
2.799 1.803 0.243 1106247680
2.8069999 1.8099999 0.24600001 1107296256
2.8080001 1.836 0.24600001 1107296256
2.813 1.84 0.24699999 1106771968
2.8155 1.8675001 0.248 1106509824
2.8179998 1.895 0.24950001 1098514432
2.8245001 1.925 0.25150001 1107820544
2.8295002 1.9545 0.25349998 1107296256
2.8330002 1.9809999 0.255 1098645504
2.8380001 2.0079999 0.259 1107820544
2.8410001 2.013 0.25600001 1106771968
2.845 2.04 0.257 1107296256
2.8499999 2.0669999 0.259 1106771968
2.5050001 -1.96 0.278 1106247680
2.4955001 -1.9275 0.2685 1105985536
2.5026002 -1.9354 0.27540001 1105920000
2.4835 -1.9115 0.26249999 1105461248
2.5039999 -1.918 0.27700001 1106771968
2.5009999 -1.8940001 0.27500001 1107296256
2.497 -1.87 0.27399999 1106771968
2.4949999 -1.846 0.27200001 1107296256
2.4860001 -1.817 0.27000001 1104674816
2.4749999 -1.785 0.26699999 1106771968
2.4909999 -1.773 0.26699999 1121583104
2.5009999 -1.756 0.266 1121714176
2.5009999 -1.7309999 0.26499999 1120534528
2.5020001 -1.707 0.26300001 1120403456
2.5280001 -1.709 0.27900001 1120010240
2.5320001 -1.691 0.278 1121845248
2.494 -1.678 0.25999999 1117650944
2.5339999 -1.6720001 0.27700001 1121189888
2.539 -1.653 0.27599999 1120010240
2.536 -1.63 0.27399999 1118830592
2.533 -1.605 0.273 1117388800
2.5374999 -1.5834999 0.27500001 1115815936
2.539 -1.564 0.271 1114374144
2.54 -1.559 0.27599999 1112014848
2.5365 -1.5365 0.27200001 1115029504
2.533 -1.5089999 0.271 1113849856
2.54 -1.518 0.27000001 1112276992
2.5380001 -1.489 0.27000001 1116602368
2.5420001 -1.495 0.27000001 1115684864
2.53 -1.461 0.26699999 1115947008
2.5420001 -1.471 0.26899999 1115422720
2.549 -1.451 0.26899999 1117257728
2.5339999 -1.4400001 0.26499999 1117650944
2.5469999 -1.426 0.26899999 1117126656
2.5280001 -1.414 0.26199999 1117257728
2.5510001 -1.403 0.26899999 1117650944
2.556 -1.382 0.26899999 1120796672
2.5610001 -1.36 0.27000001 1120927744
2.563 -1.336 0.27000001 1119879168
2.5610001 -1.3099999 0.27000001 1118568448
2.569 -1.289 0.271 1120010240
2.575 -1.267 0.27200001 1119223808
2.572 -1.24 0.27200001 1116471296
2.5780001 -1.2180001 0.273 1116864512
2.582 -1.194 0.27399999 1116995584
2.5880001 -1.171 0.27500001 1118306304
2.5929999 -1.1440001 0.2775 1114439680
2.599 -1.126 0.278 1114636288
2.5910001 -1.115 0.27599999 1117388800
2.605 -1.103 0.27900001 1116471296
2.5799999 -1.086 0.27200001 1116471296
2.5840001 -1.064 0.27000001 1116864512
2.5780001 -1.0369999 0.266 1113587712
2.575 -1.012 0.26300001 1116471296
2.573 -0.98699999 0.26100001 1117126656
2.5964999 -0.88699996 0.2705 1115684864
2.608 -0.89899999 0.27599999 1112276992
2.5904999 -0.8725 0.26350001 1115160576
2.5869999 -0.77899998 0.25999999 1113587712
2.6255 -0.773 0.27649999 1112145920
2.5910001 -0.75700003 0.26199999 1114112000
2.6240001 -0.75300002 0.27200001 1115947008
2.5974998 -0.73450005 0.26300001 1117257728
2.6110001 -0.7295714 0.27128571 1118109696
2.6110001 -0.70766664 0.26933333 1099694080
2.6065001 -0.69149995 0.264 1114308608
2.6086667 -0.67366666 0.26800001 1098645504
2.612 -0.64950001 0.27149999 1100087296
2.6129999 -0.62699997 0.27149999 1100087296
2.602 -0.60350001 0.26499999 1102118912
2.6199999 -0.60000002 0.27200001 1113063424
2.6059999 -0.58749998 0.26499999 1102446592
2.6053333 -0.5686667 0.26433334 1102184448
2.622 -0.57700002 0.273 1112539136
2.6064999 -0.54399997 0.26324999 1101594624
2.6259999 -0.55500001 0.27399999 1113063424
2.6110001 -0.52700001 0.264 1117650944
2.638 -0.53500003 0.27599999 1112801280
2.6110001 -0.51324999 0.264 1101529088
2.632 -0.51099998 0.27599999 1109917696
2.6143334 -0.49366665 0.26433334 1102118912
2.6440001 -0.491 0.278 1113587712
2.6104999 -0.47299999 0.264 1100808192
2.6210001 -0.47499999 0.264 1104150528
2.648 -0.46799999 0.27900001 1113849856
2.6099999 -0.45300001 0.26300001 1101529088
2.6243334 -0.45133337 0.26566669 1113980928
2.6110001 -0.43099999 0.26199999 1101529088
2.6259999 -0.4285 0.26599997 1102446592
2.615 -0.41 0.26199999 1101529088
2.6265001 -0.40899998 0.266 1103560704
2.615 -0.38800001 0.26100001 1101004800
2.625 -0.396 0.264 1117650944
2.6400001 -0.384 0.27000001 1106247680
2.6170001 -0.36700001 0.26100001 1101004800
2.628 -0.36766669 0.26533332 1101594624
2.612 -0.345 0.25999999 1100480512
2.625 -0.347 0.26199999 1116340224
2.615 -0.324 0.25999999 1100480512
2.6270001 -0.33000001 0.26199999 1116602368
2.641 -0.338 0.271 1106771968
2.6224999 -0.3075 0.25999999 1100480512
2.648 -0.31600001 0.273 1108082688
2.625 -0.28850001 0.25999999 1101070336
2.6429999 -0.292 0.273 1114112000
2.6229999 -0.26100001 0.25999999 1101004800
2.6530001 -0.27000001 0.27399999 1113849856
2.655 -0.24699999 0.27500001 1114898432
2.6270001 -0.23999999 0.26100001 1100480512
2.6630001 -0.22499999 0.27599999 1109131264
2.628 -0.219 0.26100001 1101529088
2.6719999 -0.20299999 0.278 1105723392
2.6300001 -0.199 0.26100001 1101004800
2.6760001 -0.18099999 0.27900001 1104150528
2.6340001 -0.178 0.26199999 1101004800
2.6329999 -0.15700001 0.26199999 1101004800
2.677 -0.15800001 0.27900001 1103626240
2.6370001 -0.13699999 0.26300001 1101529088
2.641 -0.117 0.264 1102577664
2.6429999 -0.096000001 0.26499999 1102577664
2.645 -0.075999998 0.266 1103101952
2.6570001 -0.056000002 0.26800001 1102577664
2.661 -0.035 0.26899999 1103626240
2.6619999 -0.015 0.27000001 1102577664
2.6619999 0.0040000002 0.271 1106771968
2.668 0.025 0.273 1106771968
2.6700001 0.045000002 0.27399999 1107296256
2.677 0.064999998 0.27599999 1105723392
2.681 0.085000001 0.27700001 1104674816
2.6849999 0.105 0.27900001 1106247680
2.6930001 0.42300001 0.25999999 1116733440
2.694 0.44 0.26100001 1116471296
2.7049999 0.45899999 0.26300001 1117519872
2.721 0.45199999 0.27900001 1103101952
2.7079999 0.47600001 0.26499999 1116209152
2.7260001 0.477 0.27900001 1103101952
2.6960001 0.49200001 0.26100001 1120403456
2.711 0.493 0.266 1115947008
2.6989999 0.509 0.26300001 1122893824
2.7190001 0.51099998 0.26800001 1116602368
2.73 0.50099999 0.278 1103101952
2.6960001 0.52499998 0.264 1095761920
2.7160001 0.52600002 0.26800001 1115684864
2.734 0.52600002 0.278 1102577664
2.7305 0.54699999 0.27399999 1100873728
2.7285001 0.57200003 0.27274999 1097465856
2.7335 0.59299999 0.2735 1117585408
2.71 0.616 0.26100001 1108344832
2.7379999 0.60699999 0.273 1114636288
2.74 0.60600001 0.27649999 1101725696
2.7360001 0.62099999 0.273 1114374144
2.7443333 0.63033336 0.27599999 1101135872
2.7160001 0.64099997 0.26300001 1106771968
2.7460001 0.65149999 0.27450001 1101332480
2.72 0.66600001 0.26499999 1108606976
2.7503335 0.67366666 0.27433333 1100283904
2.73 0.69300002 0.26800001 1107820544
2.75 0.69099998 0.27399999 1114636288
2.7379999 0.71899998 0.27000001 1107296256
2.7479999 0.70600003 0.27266666 1099038720
2.7480001 0.72966671 0.27166668 1099038720
2.727 0.75400001 0.26100001 1115684864
2.7474999 0.75024998 0.27074999 1098448896
2.7379999 0.76599997 0.26499999 1116995584
2.7459998 0.77280003 0.2692 1097269248
2.7487497 0.79000002 0.26950002 1112670208
2.7460001 0.80199999 0.26800001 1103101952
2.7650001 0.80000001 0.27700001 1114898432
2.737 0.83600003 0.25999999 1110966272
2.7509999 0.829 0.26800001 1103626240
2.75225 0.84675002 0.26750001 1096941568
2.7655001 0.85000002 0.2775 1099956224
2.7509999 0.88099998 0.26499999 1105723392
2.7539999 0.90700001 0.264 1106771968
2.757 0.93400002 0.26300001 1106771968
2.7579999 0.96100003 0.26199999 1108082688
2.753 0.986 0.25999999 1110966272
2.7520001 1.0779999 0.26100001 1112801280
2.76 1.108 0.26499999 1111490560
2.7679999 1.137 0.26899999 1113063424
2.783 1.17 0.27399999 1110179840
2.7909999 1.201 0.27700001 1109655552
2.7950001 1.476 0.26100001 1113325568
2.8099999 1.511 0.26499999 1108606976
2.8180001 1.544 0.26899999 1108344832
2.8280001 1.577 0.273 1108344832
2.842 1.613 0.278 1107820544
2.848 2.0380001 0.26100001 1107558400
2.8510001 2.0639999 0.26199999 1108082688
2.8540001 2.0904999 0.26200002 1106509824
2.859 2.1140001 0.26499999 1106771968
2.8635001 2.1304998 0.26449999 1106247680
2.8729999 2.1500001 0.26699999 1105723392
2.8745 2.1700001 0.26800001 1105723392
2.869 2.1830001 0.26699999 1106247680
2.882 2.198 0.27200001 1105723392
2.869 2.2105 0.2665 1105723392
2.8870001 2.221 0.27399999 1105723392
2.8765001 2.2509999 0.26699999 1105461248
2.8929999 2.243 0.27700001 1105199104
2.8729999 2.2709999 0.266 1105199104
2.8789999 2.29 0.266 1102053376
2.882 2.3039999 0.26499999 1095761920
2.895 2.3269999 0.26499999 1077936128
2.516 -1.9343333 0.28199998 1105723392
2.5220001 -1.928 0.285 1105723392
2.5243332 -1.9123334 0.28766668 1105526784
2.5339999 -1.893 0.29049999 1105199104
2.536 -1.869 0.2915 1105461248
2.5450001 -1.863 0.29699999 1103626240
2.5369999 -1.849 0.292 1104674816
2.5409999 -1.845 0.294 1103101952
2.5365 -1.8295 0.2915 1103101952
2.5239999 -1.808 0.28999999 1103101952
2.5125 -1.7874999 0.28750002 1103101952
2.5109999 -1.773 0.28400001 1104150528
2.5276668 -1.7670001 0.28766668 1109393408
2.5325 -1.747 0.28549999 1113587712
2.5339999 -1.729 0.2845 1118109696
2.539 -1.7079999 0.287 1119879168
2.5380001 -1.688 0.28600001 1119748096
2.543 -1.67 0.285 1120796672
2.54 -1.647 0.28299999 1119617024
2.5380001 -1.624 0.28200001 1119879168
2.5420001 -1.605 0.28 1114112000
2.605 -1.293 0.29800001 1120796672
2.602 -1.267 0.29499999 1120665600
2.5940001 -1.239 0.29100001 1117782016
2.5899999 -1.212 0.287 1110179840
2.5899999 -1.188 0.28400001 1111490560
2.5910001 -1.164 0.28200001 1111752704
2.6059999 -1.0779999 0.28 1116471296
2.612 -1.054 0.28200001 1115422720
2.6170001 -1.031 0.28299999 1116733440
2.6199999 -1.007 0.28400001 1116733440
2.622 -0.98199999 0.285 1115422720
2.6289999 -0.95899999 0.287 1116209152
2.6333334 -0.92799997 0.292 1114898432
2.641 -0.92900002 0.29899999 1115684864
2.6160002 -0.90850002 0.28200001 1115422720
2.6265001 -0.91299999 0.28850001 1111883776
2.6324999 -0.89050001 0.29449999 1112408064
2.625 -0.86900002 0.29499999 1111490560
2.6400001 -0.86299998 0.292 1111752704
2.6229999 -0.84399998 0.292 1111228416
2.6490002 -0.84600002 0.29566666 1110310912
2.641 -0.82999998 0.29100001 1109655552
2.619 -0.81900001 0.289 1107558400
2.6329999 -0.81099999 0.28549999 1109917696
2.6530001 -0.81699997 0.296 1113587712
2.6269999 -0.79500002 0.28399998 1098776576
2.655 -0.79299998 0.29699999 1112014848
2.6229999 -0.773 0.285 1103626240
2.661 -0.76999998 0.29899999 1112014848
2.619 -0.74800003 0.28299999 1103626240
2.6140001 -0.72299999 0.28 1104150528
2.628 -0.722 0.28299999 1118568448
2.6329999 -0.71799999 0.28600001 1118568448
2.6426668 -0.70766664 0.29166666 1118502912
2.6559999 -0.69700003 0.29699999 1119748096
2.6630001 -0.60900003 0.29899999 1110441984
2.6619999 -0.59100002 0.29699999 1111752704
2.658 -0.57300001 0.29499999 1110179840
2.658 -0.55599999 0.294 1111490560
2.661 -0.52999997 0.29250002 1111883776
2.652 -0.50099999 0.28999999 1114112000
2.6500001 -0.48199999 0.289 1118699520
2.654 -0.465 0.28799999 1116471296
2.6500001 -0.44600001 0.28350002 1115029504
2.6515002 -0.42549998 0.28350002 1114308608
2.6564999 -0.40549999 0.28400001 1113718784
2.661 -0.391 0.28600001 1113587712
2.658 -0.37549999 0.28399998 1110704128
2.6589999 -0.35800001 0.28400001 1116602368
2.661 -0.352 0.285 1110966272
2.6570001 -0.336 0.28400001 1118175232
2.6619999 -0.33199999 0.28400001 1109131264
2.6615 -0.31349999 0.2845 1113784320
2.6589999 -0.29300001 0.28299999 1114898432
2.6619999 -0.292 0.285 1117782016
2.658 -0.273 0.28299999 1116733440
2.677 -0.27200001 0.287 1113063424
2.6559999 -0.252 0.28200001 1117388800
2.681 -0.25 0.28799999 1112014848
2.668 -0.233 0.28299999 1111752704
2.6800001 -0.228 0.28799999 1110441984
2.674 -0.214 0.28400001 1104150528
2.6889999 -0.207 0.289 1111228416
2.675 -0.193 0.28400001 1105723392
2.691 -0.185 0.28999999 1110179840
2.677 -0.17299999 0.28400001 1104150528
2.691 -0.164 0.28999999 1109655552
2.6893332 -0.15066667 0.29066667 1100873728
2.68875 -0.131 0.28800002 1098842112
2.6899998 -0.11333334 0.28666666 1096417280
2.6876667 -0.091666669 0.28633332 1101332480
2.701 -0.091499999 0.29500002 1114308608
2.6925998 -0.070600003 0.28920001 1101660160
2.69175 -0.051249996 0.28749999 1103560704
2.7019999 -0.043000001 0.29699999 1116209152
2.6934998 -0.029749999 0.28724998 1102774272
2.7 -0.023 0.296 1114898432
2.6956666 -0.0070000007 0.28933334 1101856768
2.7060001 -0.016000001 0.29300001 1115815936
2.6955001 0.010000001 0.28750002 1102970880
2.7060001 0.0040000002 0.29300001 1114636288
2.694 0.032499999 0.28549999 1104412672
2.7019999 0.027999999 0.29066667 1111752704
2.694 0.048 0.287 1104674816
2.7046664 0.049666669 0.29066667 1099169792
2.6935 0.064499997 0.2845 1103364096
2.7049999 0.070666663 0.29066667 1100808192
2.698 0.090999998 0.28600001 1104674816
2.7073333 0.086666666 0.28800002 1101791232
2.6989999 0.112 0.285 1104674816
2.70875 0.10600001 0.28974998 1096613888
2.6919999 0.12900001 0.2825 1105461248
2.70925 0.12775001 0.2895 1097662464
2.6954999 0.1495 0.28350002 1104150528
2.7097499 0.14925 0.2895 1096417280
2.6984999 0.17050001 0.2845 1104150528
2.7106667 0.17133333 0.28799999 1096089600
2.723 0.168 0.296 1113063424
2.7065001 0.19075 0.28649998 1101463552
2.7279999 0.18799999 0.29699999 1114112000
2.7097499 0.20725 0.28775001 1099300864
2.737 0.20900001 0.29800001 1114374144
2.71225 0.22375 0.28924999 1099497472
2.74 0.228 0.29800001 1112801280
2.7102499 0.24425 0.28725001 1098579968
2.721 0.244 0.292 1104674816
2.7409999 0.248 0.29899999 1113849856
2.707 0.26300001 0.28400001 1103364096
2.7250001 0.26800001 0.29266667 1099497472
2.7084999 0.28549999 0.28400001 1104936960
2.7266667 0.28933331 0.29333332 1098907648
2.7150002 0.30900002 0.2845 1097596928
2.731333 0.31066668 0.29466668 1112539136
2.7179999 0.33399999 0.28200001 1103626240
2.7265 0.33200002 0.29049999 1113456640
2.717 0.35699999 0.28099999 1103626240
2.7279999 0.34933332 0.292 1113260032
2.714 0.37400001 0.29100001 1095761920
2.7329998 0.37 0.29299998 1109917696
2.7160001 0.38 0.28 1102577664
2.7379999 0.38600001 0.296 1112276992
2.7130001 0.403 0.28 1103101952
2.7365 0.40450001 0.29449999 1109393408
2.714 0.43700001 0.292 1103101952
2.7290001 0.42549998 0.28650001 1097334784
2.744 0.433 0.29800001 1110704128
2.74 0.44600001 0.294 1106247680
2.744 0.46649998 0.296 1099825152
2.747 0.48899999 0.29750001 1114898432
2.7479999 0.50599998 0.29800001 1123811328
2.757 0.6505 0.28399998 1118044160
2.763 0.67299998 0.28799999 1118961664
2.773 0.68900001 0.292 1118830592
2.7885001 0.71099997 0.29699999 1118044160
2.77 0.8125 0.28299999 1109524480
2.7639999 0.82499999 0.28200001 1110179840
2.7845001 0.82949996 0.2915 1110835200
2.7709999 0.85150003 0.28350002 1108738048
2.7916667 0.85299999 0.29066667 1110179840
2.8004999 0.84650004 0.29750001 1110966272
2.7780001 0.88 0.28799999 1107820544
2.7880001 0.90799999 0.292 1109655552
2.799 0.93800002 0.29499999 1114636288
2.8080001 0.96700001 0.29899999 1116602368
2.8069999 1.235 0.28200001 1108606976
2.8139999 1.265 0.28600001 1109655552
2.825 1.2970001 0.29100001 1106771968
2.8399999 1.332 0.296 1107558400
2.849 1.6440001 0.28099999 1107820544
2.8570001 1.677 0.285 1106771968
2.8629999 1.709 0.289 1107296256
2.869 1.7410001 0.292 1106771968
2.8789999 1.775 0.296 1106771968
2.9000001 2.266 0.28 1105199104
2.9059999 2.2869999 0.28299999 1105199104
2.9130001 2.3080001 0.28600001 1104674816
2.9189999 2.326 0.289 1102577664
2.9319999 2.3499999 0.29300001 1102053376
2.934 2.3629999 0.296 1100480512
2.947 2.3840001 0.29899999 1099431936
2.586 -1.974 0.31799999 1104150528
2.5739999 -1.9514999 0.31299999 1103626240
2.566 -1.9299999 0.308 1102577664
2.559 -1.901 0.303 1103626240
2.5639999 -1.9170001 0.30599999 1102577664
2.5510001 -1.881 0.30000001 1103626240
2.615 -1.471 0.31900001 1113587712
2.615 -1.447 0.31600001 1118044160
2.6140001 -1.4220001 0.31299999 1117650944
2.608 -1.3940001 0.31 1118830592
2.6070001 -1.368 0.30700001 1117126656
2.6040001 -1.342 0.303 1118044160
2.5999999 -1.316 0.30000001 1119617024
2.6429999 -1.046 0.31600001 1111490560
2.642 -1.02 0.31299999 1112801280
2.6389999 -0.995 0.30899999 1111752704
2.641 -0.97100002 0.30700001 1114898432
2.635 -0.94400001 0.303 1115947008
2.6560001 -0.93550003 0.3055 1116143616
2.6676667 -0.93866664 0.31366667 1115160576
2.6329999 -0.91900003 0.301 1112801280
2.6789999 -0.90600002 0.317 1111752704
2.6745 -0.89250004 0.31200001 1111097344
2.6634998 -0.87199998 0.30449998 1112276992
2.6670001 -0.74599999 0.301 1110441984
2.6900001 -0.741 0.31799999 1112014848
2.6730001 -0.72299999 0.30199999 1104674816
2.681 -0.72399998 0.31400001 1110441984
2.677 -0.708 0.31200001 1112539136
2.66925 -0.69075 0.30374998 1100873728
2.671 -0.67224997 0.3055 1100218368
2.6706667 -0.65266663 0.30533335 1113849856
2.6820002 -0.64900005 0.308 1103233024
2.6659999 -0.62599999 0.301 1111490560
2.6859999 -0.63033336 0.31099999 1103364096
2.6926668 -0.60766667 0.31299999 1103822848
2.6900001 -0.58899999 0.315 1119223808
2.6947498 -0.5715 0.31575 1103167488
2.6973333 -0.55000001 0.31566668 1102774272
2.698 -0.53299999 0.31299999 1102053376
2.7055001 -0.53100002 0.31849998 1118240768
2.7056668 -0.51300001 0.317 1101856768
2.698 -0.495 0.31600001 1102577664
2.7125001 -0.491 0.31800002 1101594624
2.6989999 -0.47299999 0.315 1102577664
2.7133334 -0.46899998 0.31833333 1102184448
2.698 -0.44999999 0.31400001 1102577664
2.7079999 -0.447 0.31799999 1118830592
2.7113335 -0.43266666 0.31666666 1102643200
2.7055001 -0.41 0.315 1102905344
2.7076664 -0.39199999 0.31533334 1099038720
2.7073333 -0.37366664 0.31500003 1115815936
2.698 -0.36000001 0.31099999 1103101952
2.7105 -0.35149997 0.315 1114177536
2.697 -0.33700001 0.31099999 1102053376
2.7084999 -0.333 0.31300002 1113587712
2.6989999 -0.31600001 0.31099999 1103101952
2.7084999 -0.31449997 0.31200001 1114898432
2.7063332 -0.29499999 0.31033334 1099563008
2.7086666 -0.27500001 0.31 1099104256
2.6989999 -0.25799999 0.30500001 1106771968
2.711 -0.25349998 0.3105 1101791232
2.7055001 -0.23800001 0.30599999 1111949312
2.72 -0.23 0.31299999 1103101952
2.704 -0.21849999 0.30449998 1112145920
2.7219999 -0.208 0.31299999 1103101952
2.7024999 -0.19850001 0.303 1112211456
2.727 -0.18700001 0.31400001 1103101952
2.7046669 -0.17299999 0.30233335 1113784320
2.7219999 -0.16500001 0.31400001 1102577664
2.7049999 -0.141 0.30199999 1116602368
2.7309999 -0.14399999 0.31600001 1102577664
2.7019999 -0.122 0.301 1116209152
2.7320001 -0.123 0.31600001 1103101952
2.7030001 -0.102 0.30000001 1116078080
2.734 -0.101 0.317 1103101952
2.7360001 -0.079999998 0.31799999 1103101952
2.7390001 -0.059 0.31900001 1104674816
2.747 0.26800001 0.30000001 1114898432
2.7460001 0.287 0.30000001 1117126656
2.7460001 0.30599999 0.301 1116209152
2.7379999 0.322 0.30000001 1106771968
2.7460001 0.32499999 0.301 1117913088
2.7459998 0.3425 0.30199999 1103888384
2.7513332 0.36733332 0.30433333 1111752704
2.7590001 0.38299999 0.30500001 1117126656
2.763 0.39899999 0.308 1109131264
2.7635 0.40899998 0.308 1114243072
2.766 0.43099999 0.30900002 1115291648
2.7509999 0.45699999 0.30000001 1109917696
2.7765 0.45550001 0.31200001 1114439680
2.7775002 0.47350001 0.31299999 1114701824
2.753 0.48100001 0.301 1110704128
2.7820001 0.49150002 0.315 1114963968
2.7625 0.51249999 0.30199999 1099431936
2.7919998 0.51050001 0.3175 1114112000
2.7649999 0.52999997 0.303 1117257728
2.7909999 0.52899998 0.317 1121189888
2.7747502 0.55299997 0.308 1116798976
2.7950001 0.546 0.31900001 1121976320
2.779 0.56900001 0.30500001 1105723392
2.78 0.57499999 0.30399999 1120927744
2.779 0.58099997 0.30899999 1113587712
2.7825 0.59450001 0.30650002 1104019456
2.7906666 0.61466664 0.30999997 1100742656
2.7980001 0.63300002 0.31400001 1111752704
2.7940001 0.64100003 0.31099999 1103429632
2.802 0.65899998 0.31600001 1111228416
2.806 0.66649997 0.31400001 1103298560
2.812 0.68800002 0.317 1101201408
2.8169999 0.704 0.31600001 1118437376
2.799 0.73299998 0.30199999 1117519872
2.8269999 0.727 0.31799999 1118568448
2.8055 0.75150001 0.30699998 1116930048
2.813 0.76999998 0.31299999 1116340224
2.823 0.78299999 0.317 1115815936
2.8239999 0.81150001 0.317 1107427328
2.813 0.83333331 0.30866668 1105723392
2.8199999 0.82200003 0.31400001 1106771968
2.8057501 0.84825003 0.30300003 1095434240
2.8249998 0.86399996 0.31349999 1108606976
2.8429999 0.96700001 0.31900001 1107296256
2.8199999 0.99699998 0.303 1116864512
2.848 0.99599999 0.31799999 1107558400
2.8210001 1.024 0.30599999 1116864512
2.849 1.023 0.317 1107296256
2.829 1.054 0.31 1116471296
2.8529999 1.052 0.31600001 1106771968
2.852 1.079 0.315 1105723392
2.845 1.087 0.315 1116602368
2.855 1.108 0.31400001 1105723392
2.8570001 1.137 0.31400001 1106771968
2.8540001 1.163 0.31200001 1106247680
2.8559999 1.192 0.31099999 1107558400
2.8659999 1.225 0.31099999 1106771968
2.8629999 1.252 0.31 1105723392
2.868 1.2819999 0.31 1107296256
2.869 1.3099999 0.30899999 1106247680
2.8710001 1.34 0.308 1106247680
2.855 1.367 0.301 1107296256
2.872 1.369 0.30700001 1106247680
2.8740001 1.399 0.30700001 1108869120
2.868 1.401 0.30500001 1108344832
2.8755002 1.4305 0.308 1107951616
2.8800001 1.459 0.30599999 1108606976
2.8829999 1.466 0.31400001 1110966272
2.8800001 1.488 0.30599999 1108344832
2.8895001 1.5095 0.31200001 1108869120
2.8840001 1.548 0.30500001 1108082688
2.8859999 1.5779999 0.30500001 1107820544
2.8859999 1.607 0.30500001 1107820544
2.8940001 1.64 0.30500001 1107558400
2.8889999 1.6670001 0.30500001 1107558400
2.892 1.697 0.30500001 1107558400
2.8970001 1.729 0.30599999 1106247680
2.8989999 1.7589999 0.30599999 1105199104
2.9070001 1.793 0.308 1106247680
2.891 1.809 0.30000001 1106247680
2.9089999 1.822 0.308 1106247680
2.8970001 1.841 0.303 1106771968
2.9170001 1.855 0.31 1105723392
2.9030001 1.873 0.30599999 1106247680
2.9200001 1.885 0.31099999 1106247680
2.915 1.9069999 0.31 1106771968
2.921 1.914 0.31200001 1105723392
2.9275 1.9445 0.31349999 1105723392
2.9300001 1.971 0.31600001 1106247680
2.9400001 1.9809999 0.31600001 1106247680
2.938 2.006 0.317 1106247680
2.9389999 2.0339999 0.31799999 1106247680
2.951 2.3959999 0.30199999 1097859072
2.961 2.4119999 0.30599999 1095761920
2.9714999 2.4289999 0.3105 1094713344
2.9779999 2.4400001 0.315 1094713344
2.984 2.447 0.31799999 1095761920
2.612 -2.0220001 0.33899999 1106247680
2.599 -2.0039999 0.32699999 1106247680
2.6040001 -2.01425 0.333 1106116608
2.5935001 -1.9905 0.32249999 1104936960
2.6210001 -1.767 0.33899999 1118175232
2.625 -1.748 0.33700001 1111490560
2.6199999 -1.723 0.33500001 1105199104
2.619 -1.7 0.333 1105723392
2.6140001 -1.674 0.331 1106771968
2.6270001 -1.668 0.33899999 1104674816
2.612 -1.65 0.329 1104674816
2.622 -1.642 0.33700001 1103626240
2.612 -1.626 0.32800001 1104674816
2.6139998 -1.6085 0.33050001 1109131264
2.6129999 -1.59 0.331 1110966272
2.6099999 -1.5779999 0.32600001 1115160576
2.6199999 -1.5700001 0.329 1118568448
2.6140001 -1.556 0.32499999 1115947008
2.6229999 -1.548 0.32699999 1119748096
2.6215 -1.5295 0.32449999 1115750400
2.6229999 -1.512 0.32499999 1111490560
2.6159999 -1.4960001 0.32100001 1114636288
2.625 -1.488 0.324 1112539136
2.6300001 -1.466 0.32499999 1111752704
2.628 -1.4400001 0.324 1113325568
2.631 -1.416 0.324 1112539136
2.6329999 -1.392 0.324 1113063424
2.6389999 -1.369 0.32499999 1113587712
2.6459999 -1.347 0.32600001 1113587712
2.641 -1.319 0.32499999 1112801280
2.651 -1.298 0.32600001 1112801280
2.6489999 -1.271 0.32699999 1113325568
2.655 -1.248 0.32800001 1115684864
2.6600001 -1.224 0.329 1116340224
2.664 -1.2025001 0.333 1113456640
2.6670001 -1.181 0.33399999 1113063424
2.671 -1.177 0.331 1112014848
2.6700001 -1.1535 0.331 1111752704
2.6589999 -1.127 0.32600001 1110704128
2.6800001 -1.128 0.333 1110179840
2.678 -1.101 0.33399999 1109393408
2.651 -1.099 0.32300001 1110966272
2.655 -1.075 0.31999999 1108606976
2.6819999 -1.077 0.33500001 1111228416
2.687 -1.053 0.336 1109655552
2.694 -1.029 0.338 1110704128
2.697 -1.005 0.33899999 1112539136
2.7079999 -0.94400001 0.338 1113325568
2.6750002 -0.93599999 0.3215 1114767360
2.6931667 -0.93083334 0.32916668 1114636288
2.7 -0.92500001 0.33399999 1115947008
2.691 -0.917 0.322 1113849856
2.7035 -0.91649997 0.33750001 1115619328
2.7084999 -0.83249998 0.33749998 1110835200
2.7049999 -0.81400001 0.333 1109655552
2.698 -0.78600001 0.32600001 1111752704
2.7019999 -0.80000001 0.33000001 1111752704
2.6989999 -0.77200001 0.324 1110441984
2.707 -0.77999997 0.33700001 1105723392
2.6900001 -0.75599998 0.31999999 1111228416
2.7060001 -0.755 0.33500001 1105199104
2.7079999 -0.73199999 0.333 1105723392
2.698 -0.70499998 0.329 1104150528
2.6989999 -0.68199998 0.32800001 1104674816
2.7019999 -0.65899998 0.32600001 1105199104
2.6989999 -0.634 0.324 1105199104
2.6930001 -0.60900003 0.322 1105723392
2.6960001 -0.58700001 0.31999999 1104674816
2.7309999 -0.583 0.338 1109917696
2.7279999 -0.565 0.336 1110704128
2.7309999 -0.54699999 0.33500001 1109917696
2.727 -0.528 0.333 1109131264
2.7290001 -0.51099998 0.33199999 1109393408
2.723 -0.491 0.329 1110704128
2.7219999 -0.47299999 0.32699999 1109131264
2.7260001 -0.45500001 0.32600001 1109655552
2.7219999 -0.435 0.324 1109917696
2.7179999 -0.41499999 0.322 1109655552
2.7260001 -0.417 0.32100001 1103626240
2.723 -0.39199999 0.32100001 1103626240
2.7309999 -0.36899999 0.32300001 1103101952
2.733 -0.34599999 0.324 1104150528
2.7550001 -0.36000001 0.33899999 1111228416
2.7320001 -0.322 0.324 1111752704
2.747 -0.33899999 0.33700001 1116209152
2.75 -0.31900001 0.33700001 1124532224
2.737 -0.29799998 0.32999998 1093402624
2.7480001 -0.27700001 0.33149999 1114243072
2.7490001 -0.252 0.32800001 1105723392
2.76 -0.25799999 0.33700001 1110704128
2.7520001 -0.229 0.329 1103101952
2.7650001 -0.23800001 0.33700001 1109917696
2.7550001 -0.205 0.33000001 1103101952
2.76 -0.21600001 0.336 1108344832
2.7635 -0.189 0.33399999 1104412672
2.7709999 -0.175 0.33700001 1104674816
2.7680001 -0.15599999 0.33450001 1103364096
2.7694998 -0.13350001 0.33500001 1103626240
