# .PCD v0.7 - Point Cloud Data file format
VERSION 0.7
FIELDS x y z
SIZE 4 4 4
TYPE F F F
COUNT 1 1 1
WIDTH 1743
HEIGHT 1
VIEWPOINT 0 0 0 1 0 0 0
POINTS 1743
DATA ascii
1.609 -0.96700001 -0.18000001
1.747 -0.97799999 -0.168
1.6160001 -0.95599997 -0.17900001
1.836 -0.95499998 -0.178
1.755 -0.93000001 -0.17
1.635 -0.903 -0.17399999
1.666 -0.90399998 -0.175
1.684 -0.90899998 -0.162
1.727 -0.92000002 -0.18000001
2.8789999 -0.25600001 -0.167
2.8840001 -0.234 -0.168
2.8859999 -0.211 -0.168
3.0109999 -0.19599999 -0.175
2.835 -0.030999999 -0.16500001
2.8699999 -0.027000001 -0.175
2.8106668 -0.006333333 -0.171
2.8063333 0.014000001 -0.17033333
2.8085001 0.036499999 -0.1735
2.8199999 0.030999999 -0.164
2.8510001 0.044 -0.161
1.057 0.54900002 -0.176
3.99 0.67000002 -0.178
3.9260001 0.69700003 -0.176
3.9530001 0.69300002 -0.17649999
3.9690001 0.68199998 -0.177
3.9059999 0.713 -0.177
3.7535 0.73450005 -0.17649999
3.76 0.72899997 -0.163
3.8039999 0.727 -0.17399999
3.8399999 0.72500002 -0.175
3.892 0.72000003 -0.17
3.948 0.72399998 -0.17900001
3.6530001 0.75700003 -0.175
3.6619999 0.75099999 -0.17299999
3.688 0.74599999 -0.177
3.7119999 0.74150002 -0.17199999
3.585 0.77499998 -0.17199999
3.6140001 0.76700002 -0.17299999
3.6270001 0.76200002 -0.17399999
3.6630001 0.76300001 -0.17
3.5380001 0.79500002 -0.177
3.5539999 0.78200001 -0.175
3.5599999 0.79100001 -0.169
3.6070001 0.78200001 -0.169
3.471 0.81800002 -0.161
3.4903333 0.81366664 -0.17
3.5079999 0.80500001 -0.178
3.527 0.80000001 -0.16599999
3.55 0.801 -0.168
3.4530001 0.83899999 -0.167
3.4660001 0.87300003 -0.169
3.5150001 1.005 -0.163
3.5320001 1.007 -0.168
3.4979999 1.257 -0.175
3.5550001 1.244 -0.18000001
3.484 1.285 -0.17200001
3.4949999 1.323 -0.171
3.5050001 1.36 -0.169
3.52 1.401 -0.167
3.5280001 1.438 -0.16500001
3.0150001 1.473 -0.178
2.9295001 1.492 -0.16600001
2.9664998 1.4809999 -0.16749999
2.852 1.513 -0.163
2.8659999 1.516 -0.163
2.8905001 1.5020001 -0.1645
2.1085 -1.7674999 -0.149
2.1129999 -1.753 -0.15000001
2.1210001 -1.747 -0.15099999
2.125 -1.7263333 -0.15466666
2.1308334 -1.7096667 -0.15466666
2.1355 -1.6949999 -0.15099999
2.1459999 -1.6900001 -0.15099999
2.1515 -1.67325 -0.14799999
2.1533334 -1.6503334 -0.14966667
2.158 -1.6324999 -0.14750001
2.164 -1.6289999 -0.141
2.1630001 -1.61 -0.152
2.1659999 -1.592 -0.15099999
2.174 -1.577 -0.15099999
4.3569999 -1.566 -0.16
4.454 -1.566 -0.141
2.1760001 -1.558 -0.15000001
2.1830001 -1.541 -0.149
2.191 -1.525 -0.148
4.3790002 -1.5319999 -0.15700001
2.197 -1.507 -0.147
4.4349999 -1.517 -0.14300001
2.207 -1.492 -0.146
4.3979998 -1.497 -0.154
2.2130001 -1.473 -0.145
4.4180002 -1.4655 -0.1485
2.2149999 -1.452 -0.14399999
2.22 -1.432 -0.142
4.401 -1.423 -0.148
4.4310002 -1.424 -0.148
2.2249999 -1.413 -0.141
4.454 -1.39 -0.145
4.3909998 -1.3789999 -0.15000001
4.3889999 -1.337 -0.152
4.369 -1.291 -0.154
2.2130001 -1.251 -0.15800001
4.3629999 -1.25 -0.156
4.3429999 -1.205 -0.15700001
2.628 -1.193 -0.155
4.427 -1.1950001 -0.14300001
4.4429998 -1.188 -0.142
2.5510001 -1.169 -0.155
4.427 -1.176 -0.147
2.4690001 -1.145 -0.14399999
2.401 -1.123 -0.148
2.4349999 -1.132 -0.156
2.2750001 -1.086 -0.14300001
2.3010001 -1.0930001 -0.146
1.8430001 -1.036 -0.14399999
1.712 -1.006 -0.15700001
1.599 -0.99000001 -0.155
1.9910001 -1 -0.15899999
1.5935 -0.9745 -0.1505
1.602 -0.96800005 -0.154
1.63 -0.96100003 -0.15700001
1.903 -0.97500002 -0.15099999
1.604 -0.958 -0.149
1.818 -0.94999999 -0.14399999
1.847 -0.95899999 -0.156
1.655 -0.92400002 -0.147
1.762 -0.93300003 -0.15099999
1.688 -0.91000003 -0.147
1.635 -0.898 -0.1505
4.5079999 -0.889 -0.141
4.494 -0.86400002 -0.142
2.869 -0.25999999 -0.154
2.868 -0.23800001 -0.154
2.872 -0.215 -0.154
2.8889999 -0.19400001 -0.155
3.0610001 -0.19400001 -0.147
2.8310001 -0.039000001 -0.156
2.7880001 -0.017999999 -0.155
2.776 0.0020000001 -0.155
2.7920001 0.022 -0.15700001
3.6960001 0.74900001 -0.15899999
3.6340001 0.76800001 -0.155
3.5810001 0.78799999 -0.15099999
3.5239999 0.80699998 -0.147
3.4489999 0.82700002 -0.15899999
3.4690001 0.82499999 -0.14300001
3.451 0.84800005 -0.15650001
3.4630001 0.85500002 -0.141
3.5155001 1.00625 -0.153
3.529 1.007 -0.14300001
3.5769999 1.2309999 -0.141
3.4690001 1.2589999 -0.142
3.523 1.245 -0.142
3.5 1.303 -0.147
3.507 1.339 -0.15000001
3.523 1.3789999 -0.154
3.3069999 1.391 -0.154
3.3239999 1.388 -0.154
3.211 1.414 -0.155
3.233 1.415 -0.145
3.2550001 1.401 -0.154
3.2750001 1.401 -0.149
3.533 1.4170001 -0.15700001
3.128 1.439 -0.15700001
3.1689999 1.426 -0.156
3.181 1.423 -0.141
3.5 1.438 -0.15899999
3.0840001 1.449 -0.15800001
3.0079999 1.474 -0.16
3.046 1.462 -0.15899999
4.3600001 -1.783 -0.121
4.4159999 -1.763 -0.125
4.4619999 -1.739 -0.13
4.4910002 -1.707 -0.134
4.4819999 -1.66 -0.13600001
2.1704998 -1.61 -0.13949999
4.4689999 -1.613 -0.139
2.1730001 -1.587 -0.13699999
2.1789999 -1.575 -0.13699999
2.1849999 -1.562 -0.13600001
2.1860001 -1.544 -0.13500001
2.1949999 -1.5319999 -0.13500001
2.1900001 -1.5089999 -0.134
2.1989999 -1.4960001 -0.134
1.728 -1.461 -0.121
2.2055001 -1.4705 -0.133
2.21 -1.443 -0.133
2.2190001 -1.428 -0.133
2.2219999 -1.409 -0.133
4.402 -1.3329999 -0.14
2.2474999 -1.3125 -0.13350001
4.4920001 -1.319 -0.14
2.256 -1.294 -0.133
2.937 -1.2869999 -0.13
2.971 -1.296 -0.127
2.1919999 -1.239 -0.133
2.7409999 -1.228 -0.124
4.448 -1.224 -0.132
4.4445 -1.207 -0.124
4.441 -1.1953334 -0.13599999
4.4733334 -1.1913334 -0.131
4.4959998 -1.1849999 -0.124
2.332 -1.105 -0.13500001
4.5310001 -1.084 -0.123
2.21 -1.069 -0.126
2.1700001 -1.0545 -0.13749999
4.5320001 -1.0495 -0.1215
2.073 -1.027 -0.13
4.5300002 -1.0369999 -0.126
2.0510001 -1.0190001 -0.133
4.5320001 -1.0190001 -0.12899999
4.54 -1.002 -0.131
1.5875 -0.98750001 -0.123
1.9579999 -0.99199998 -0.12899999
1.971 -0.99599999 -0.123
4.5359998 -0.98100001 -0.134
1.5935 -0.97600001 -0.123
1.6 -0.963 -0.125
1.874 -0.96700001 -0.125
1.6109999 -0.954 -0.126
1.791 -0.94199997 -0.121
4.533 -0.95999998 -0.13600001
1.7410001 -0.92699999 -0.13699999
4.513 -0.93400002 -0.13699999
1.632 -0.90200001 -0.12800001
1.679 -0.91100001 -0.132
4.5120001 -0.912 -0.139
4.5949998 -0.56800002 -0.121
4.6009998 -0.53200001 -0.121
4.598 -0.49399999 -0.122
2.8870001 -0.28299999 -0.122
2.8709998 -0.26499999 -0.138
2.8559999 -0.25799999 -0.121
2.8699999 -0.245 -0.13749999
2.846 -0.234 -0.121
2.8710001 -0.22499999 -0.13749999
2.8670001 -0.2075 -0.13
2.882 -0.208 -0.13600001
2.8924999 -0.19 -0.1295
2.8 -0.063000001 -0.12800001
2.803 -0.041999999 -0.127
2.8499999 -0.052999999 -0.13600001
2.776 -0.021 -0.125
2.7920001 -0.029999999 -0.133
2.773 -0.0049999999 -0.12900001
2.7655001 0.0155 -0.12799999
2.7720001 0.033 -0.132
2.7884998 0.047499999 -0.1285
2.8210001 0.061999999 -0.125
3.4820001 0.81300002 -0.123
3.5079999 0.80400002 -0.121
3.4545 0.82850003 -0.126
3.4460001 0.84799999 -0.13
3.421 0.87599999 -0.138
3.513 1.028 -0.134
3.5190001 1.049 -0.126
3.5250001 1.064 -0.132
3.523 1.082 -0.12800001
3.5450001 1.103 -0.131
3.5450001 1.1210001 -0.132
3.552 1.156 -0.13500001
3.5610001 1.141 -0.12899999
3.5610001 1.175 -0.127
3.559 1.191 -0.13699999
3.6210001 1.229 -0.127
3.562 1.243 -0.122
3.1429999 1.438 -0.13699999
3.0550001 1.4579999 -0.12899999
3.0999999 1.449 -0.133
3.0150001 1.47 -0.126
2.9820001 1.484 -0.122
4.2895002 -1.8310001 -0.1125
4.316 -1.807 -0.117
4.2969999 -1.784 -0.108
2.0925 -1.768 -0.1035
2.102 -1.766 -0.119
2.0999999 -1.7589999 -0.105
2.105 -1.74775 -0.11149999
4.303 -1.744 -0.104
2.0420001 -1.726 -0.117
2.109 -1.7263333 -0.11000001
2.1110001 -1.7113333 -0.112
2.1174998 -1.691 -0.1115
2.1300001 -1.693 -0.1095
2.1323333 -1.6696668 -0.10999999
2.138 -1.6524999 -0.1095
2.141 -1.642 -0.109
2.1469998 -1.6315 -0.109
2.154 -1.6133332 -0.109
2.1570001 -1.596 -0.109
2.1600001 -1.5880001 -0.108
2.1654999 -1.577 -0.1085
2.1696668 -1.5536667 -0.10766666
2.1764998 -1.533 -0.1075
2.1860001 -1.524 -0.109
2.187 -1.5074999 -0.1075
2.1949999 -1.4915 -0.107
2.1960001 -1.475 -0.103
2.204 -1.471 -0.111
2.207 -1.4555 -0.1065
2.211 -1.4354999 -0.1065
1.653 -1.406 -0.115
2.2249999 -1.418 -0.113
1.5335 -1.3282499 -0.10224999
2.244 -1.3150001 -0.117
2.2539999 -1.298 -0.119
2.777 -1.239 -0.117
4.4326668 -1.2103333 -0.11033333
2.6040001 -1.188 -0.108
2.5650001 -1.175 -0.119
4.572 -1.161 -0.108
4.5970001 -1.1799999 -0.113
4.5500002 -1.142 -0.103
4.5869999 -1.147 -0.106
2.4170001 -1.132 -0.114
4.5479999 -1.124 -0.109
4.5310001 -1.105 -0.112
2.2839999 -1.0930001 -0.11
4.5370002 -1.09 -0.116
4.5295 -1.0675 -0.1105
2.161 -1.056 -0.107
2.053 -1.024 -0.103
2.102 -1.038 -0.119
4.5370002 -1.025 -0.104
1.999 -1.008 -0.112
4.5419998 -1.005 -0.119
4.559 -0.99000001 -0.106
1.597 -0.96399999 -0.12
1.893 -0.97399998 -0.111
4.5599999 -0.97000003 -0.117
1.603 -0.95200002 -0.119
1.7970001 -0.94400001 -0.111
4.5890002 -0.95599997 -0.108
4.5780001 -0.93400002 -0.116
1.628 -0.90399998 -0.115
1.653 -0.90200001 -0.115
1.66 -0.90499997 -0.101
1.7180001 -0.92000002 -0.118
1.72 -0.92000002 -0.105
4.5879998 -0.91600001 -0.11
4.5910001 -0.89700001 -0.114
4.6079998 -0.88 -0.112
4.6279998 -0.86500001 -0.113
4.6399999 -0.847 -0.114
4.684 -0.83499998 -0.113
4.6360002 -0.80699998 -0.116
4.6919999 -0.796 -0.111
4.6230001 -0.76499999 -0.116
4.7069998 -0.759 -0.11
4.619 -0.72600001 -0.118
4.7160001 -0.72000003 -0.109
4.6170001 -0.68599999 -0.119
4.5710001 -0.64200002 -0.118
4.6859999 -0.63700002 -0.106
4.5949998 -0.60699999 -0.12
4.6459999 -0.59299999 -0.104
4.744 -0.56699997 -0.106
2.8629999 -0.28 -0.109
2.8340001 -0.255 -0.107
2.842 -0.233 -0.108
2.8469999 -0.211 -0.108
2.862 -0.19 -0.109
2.8115001 -0.056499999 -0.11499999
2.796 -0.035 -0.115
2.7820001 -0.014500001 -0.1145
2.7620001 0.003 -0.111
2.7839999 0.0080000004 -0.118
2.783 0.026000001 -0.115
2.786 0.044 -0.114
2.8069999 0.050000001 -0.119
3.9630001 0.65600002 -0.112
3.9219999 0.67199999 -0.112
3.9605 0.66100001 -0.1145
4.2329998 0.676 -0.118
3.8740001 0.68599999 -0.112
3.8969998 0.68350005 -0.1125
3.779 0.713 -0.112
3.8269999 0.7026667 -0.111
3.6960001 0.73699999 -0.113
3.737 0.72500002 -0.112
3.7590001 0.72299999 -0.112
3.763 0.72500002 -0.104
3.6199999 0.759 -0.115
3.654 0.74800003 -0.114
3.6975 0.74349999 -0.10600001
3.592 0.77100003 -0.116
3.6400001 0.76200002 -0.111
3.5339999 0.79299998 -0.119
3.5650001 0.78299999 -0.118
3.589 0.78299999 -0.111
3.477 0.81900001 -0.11
3.527 0.80000001 -0.11
3.4419999 0.83999997 -0.111
3.4530001 0.87400001 -0.113
3.503 1.256 -0.118
3.4779999 1.28 -0.114
3.487 1.317 -0.112
3.503 1.357 -0.11
3.513 1.395 -0.108
3.1210001 1.437 -0.103
3.1659999 1.427 -0.102
3.5339999 1.438 -0.106
3.086 1.452 -0.105
3.0050001 1.473 -0.107
3.0469999 1.4630001 -0.106
2.9319999 1.4960001 -0.11
2.9419999 1.494 -0.119
2.9679999 1.485 -0.109
2.8469999 1.5039999 -0.112
2.8959999 1.507 -0.111
2.9000001 1.503 -0.115
4.3119998 -1.705 -0.1
4.3200002 -1.6670001 -0.097000003
1.931 -1.651 -0.093000002
4.329 -1.6289999 -0.093000002
4.3390002 -1.591 -0.090000004
4.348 -1.552 -0.086000003
1.809 -1.54 -0.088
4.3569999 -1.5140001 -0.082999997
1.656 -1.4069999 -0.096000001
2.21 -1.4170001 -0.098999999
3.2509999 -1.414 -0.086999997
1.638 -1.398 -0.096000001
1.609 -1.3789999 -0.096000001
1.5338572 -1.3278571 -0.096000001
4.4099998 -1.312 -0.082999997
2.2360001 -1.293 -0.090000004
4.4710002 -1.289 -0.086999997
2.131 -1.255 -0.086999997
4.4450002 -1.242 -0.089000002
4.4274998 -1.20825 -0.090999998
4.448 -1.202 -0.090999998
2.096 -1.191 -0.082000002
4.48 -1.171 -0.093999997
2.451 -1.142 -0.1
4.4369998 -1.1569999 -0.085000001
4.4499998 -1.15 -0.090000004
4.473 -1.1440001 -0.094999999
4.5250001 -1.145 -0.1
4.5479999 -1.148 -0.097999997
2.313 -1.101 -0.093000002
4.493 -1.114 -0.097000003
4.5240002 -1.102 -0.098999999
4.4790001 -1.081 -0.089000002
4.487 -1.098 -0.093000002
2.1960001 -1.067 -0.086999997
4.4770002 -1.064 -0.085000001
4.474 -1.0470001 -0.082000002
2.086 -1.035 -0.081
1.6155 -1.0105 -0.091000006
1.6095001 -0.99374998 -0.093500003
1.622 -0.98299998 -0.082999997
1.954 -0.995 -0.1
1.603 -0.97000003 -0.096000001
1.6240001 -0.97399998 -0.090999998
1.649 -0.97799999 -0.097999997
1.86 -0.96700001 -0.097999997
1.61 -0.958 -0.097000003
1.804 -0.94599998 -0.098999999
1.6440001 -0.92299998 -0.093000002
1.773 -0.94 -0.094999999
1.636 -0.90899998 -0.098999999
1.642 -0.90499997 -0.090999998
1.692 -0.91399997 -0.092
2.793 -0.289 -0.090000004
2.948 -0.29800001 -0.097000003
2.8404999 -0.27149999 -0.092
2.8345001 -0.25100002 -0.092
2.8369999 -0.2315 -0.091499999
2.8505001 -0.21250001 -0.091499999
2.862 -0.20100001 -0.090000004
2.869 -0.184 -0.091000006
3.076 -0.177 -0.1
2.8049998 -0.057 -0.087499999
2.7869999 -0.035999998 -0.086000003
2.7639999 -0.016000001 -0.081
2.7809999 -0.013 -0.089000002
2.7590001 0.003 -0.081
2.7609999 0.0070000002 -0.089000002
2.7720001 0.028999999 -0.089000002
2.7869999 0.050999999 -0.089000002
3.9820001 0.64499998 -0.089000002
3.8859999 0.67500001 -0.085000001
3.9330001 0.66000003 -0.086999997
3.842 0.68900001 -0.082999997
3.8050001 0.70300001 -0.081
3.638 0.764 -0.097999997
3.5810001 0.78399998 -0.093999997
3.5190001 0.80199999 -0.090999998
3.4649999 0.81999999 -0.088
3.451 0.84799999 -0.086000003
3.448 0.87900001 -0.083999999
3.5699999 1.232 -0.082000002
3.516 1.2460001 -0.082999997
3.4660001 1.261 -0.085000001
3.4749999 1.2970001 -0.088
3.4949999 1.337 -0.090999998
3.503 1.374 -0.093999997
3.299 1.3890001 -0.097000003
3.326 1.386 -0.097999997
3.2090001 1.414 -0.1
3.233 1.4119999 -0.090000004
3.2590001 1.405 -0.098999999
3.2809999 1.4 -0.093999997
3.52 1.414 -0.097999997
3.145 1.437 -0.082999997
3.1849999 1.423 -0.086999997
3.5090001 1.444 -0.1
2.09025 -1.771 -0.077750005
2.09375 -1.7475001 -0.067499995
2.1040001 -1.744 -0.063000001
2.1094999 -1.73 -0.068000004
2.1173332 -1.7063333 -0.068666667
2.1240001 -1.72 -0.064999998
2.119 -1.687 -0.068999998
2.128 -1.692 -0.066
2.131 -1.671 -0.067249998
2.1340001 -1.648 -0.067000002
2.145 -1.655 -0.067000002
2.135 -1.632 -0.066
2.148 -1.6289999 -0.067000002
2.1485 -1.612 -0.066500001
2.1370001 -1.596 -0.066
2.1470001 -1.5829999 -0.066
2.164 -1.592 -0.066
2.1559999 -1.5700001 -0.066
2.1659999 -1.574 -0.066
4.329 -1.572 -0.061999999
2.1670001 -1.556 -0.065499999
2.1730001 -1.5326667 -0.066
2.184 -1.523 -0.064000003
4.336 -1.533 -0.064999998
2.1859999 -1.5055001 -0.064999998
2.1939998 -1.4890001 -0.064999998
4.3460002 -1.4960001 -0.068000004
2.1919999 -1.4680001 -0.068000004
2.2 -1.469 -0.061000001
4.369 -1.476 -0.079999998
2.2 -1.452 -0.068999998
4.3579998 -1.459 -0.071000002
2.2019999 -1.431 -0.07
4.3730001 -1.4295 -0.075499997
1.652 -1.416 -0.064000003
2.21 -1.414 -0.071000002
4.3759999 -1.383 -0.077
4.388 -1.4 -0.072999999
4.3990002 -1.363 -0.07
4.3870001 -1.345 -0.079999998
1.53 -1.3236001 -0.065799996
1.546 -1.327 -0.072999999
4.4070001 -1.325 -0.067000002
1.5264999 -1.3184999 -0.06666667
2.233 -1.314 -0.075999998
2.2390001 -1.295 -0.077
2.9330001 -1.286 -0.075000003
4.415 -1.286 -0.064000003
2.809 -1.25 -0.078000002
4.414 -1.2460001 -0.061999999
2.7460001 -1.232 -0.068000004
4.4250002 -1.2 -0.077
2.5780001 -1.182 -0.061999999
2.6329999 -1.198 -0.075999998
4.415 -1.184 -0.066
4.4324999 -1.1955 -0.069499999
4.4400001 -1.188 -0.061999999
4.4169998 -1.1735001 -0.072500005
4.4260001 -1.164 -0.079999998
2.474 -1.15 -0.072999999
2.0050001 -1.138 -0.07
2.3380001 -1.1109999 -0.071999997
1.693 -1.068 -0.075000003
2.2079999 -1.072 -0.07
2.089 -1.035 -0.068000004
4.4689999 -1.028 -0.078000002
1.9875 -1.006 -0.071500003
4.4640002 -1.0089999 -0.075000003
1.6 -0.99199998 -0.068999998
1.902 -0.98199999 -0.064999998
4.4590001 -0.98900002 -0.071999997
1.609 -0.97299999 -0.067500003
4.4660001 -0.972 -0.068999998
1.8049999 -0.95099998 -0.067000002
4.474 -0.95300001 -0.067000002
4.4840002 -0.94199997 -0.061999999
1.7260001 -0.92699999 -0.063000001
4.4710002 -0.93199998 -0.064999998
4.4899998 -0.92199999 -0.064999998
1.646 -0.90100002 -0.061000001
4.4790001 -0.912 -0.061999999
4.4949999 -0.90100002 -0.067000002
1.595 -0.889 -0.061000001
4.4840002 -0.89099997 -0.061000001
4.5 -0.88 -0.068000004
4.5040002 -0.85799998 -0.07
4.5120001 -0.83600003 -0.071000002
4.5170002 -0.81199998 -0.071999997
4.527 -0.79000002 -0.072999999
4.539 -0.76599997 -0.074000001
4.546 -0.74199998 -0.075000003
4.566 -0.71899998 -0.075999998
4.5770001 -0.69400001 -0.077
4.5869999 -0.66799998 -0.077
4.585 -0.63999999 -0.077
4.6149998 -0.616 -0.077
4.645 -0.59100002 -0.078000002
2.8414998 -0.28750002 -0.068499997
2.8199999 -0.26800001 -0.061000001
2.8309999 -0.252 -0.068000004
2.8340001 -0.23 -0.068499997
2.849 -0.208 -0.068999998
2.865 -0.193 -0.077
2.8829999 -0.182 -0.061999999
2.846 -0.169 -0.075999998
2.79 -0.057 -0.075000003
2.7550001 -0.035 -0.074000001
2.7490001 -0.014 -0.074000001
2.7420001 0.0060000001 -0.072999999
2.7543335 0.028999999 -0.071333334
2.7679999 0.045000002 -0.079999998
2.783 0.046999998 -0.074000001
3.766 0.71600002 -0.078000002
3.7320001 0.73000002 -0.075999998
3.6589999 0.75300002 -0.071000002
3.6930001 0.741 -0.074000001
3.596 0.77499998 -0.066
3.6270001 0.764 -0.068999998
3.533 0.792 -0.061999999
3.5599999 0.78399998 -0.063000001
3.477 0.81099999 -0.066
3.5109999 0.80299997 -0.064000003
3.4489999 0.8265 -0.069499999
3.444 0.84600002 -0.074000001
3.447 0.86000001 -0.077
3.5020001 1.054 -0.075000003
3.5209999 1.0930001 -0.072999999
3.5350001 1.13 -0.071000002
3.54 1.123 -0.072999999
3.5469999 1.158 -0.075999998
3.543 1.166 -0.068000004
3.562 1.196 -0.079000004
3.563 1.206 -0.066
3.55 1.2359999 -0.063000001
3.1029999 1.448 -0.079999998
3.0150001 1.4680001 -0.072999999
3.0639999 1.461 -0.077
2.937 1.49 -0.067000002
2.9809999 1.483 -0.07
4.2519999 -1.8380001 -0.041000001
4.2680001 -1.798 -0.041999999
2.0669999 -1.763 -0.057
2.076 -1.758 -0.058499999
4.2779999 -1.76 -0.045000002
4.2919998 -1.724 -0.048999999
4.3039999 -1.687 -0.052000001
4.3070002 -1.647 -0.055
4.3189998 -1.61 -0.059
2.2079999 -1.452 -0.059999999
2.207 -1.428 -0.059
2.2160001 -1.4119999 -0.057999998
2.2390001 -1.3099999 -0.050000001
2.2379999 -1.2869999 -0.048
4.4050002 -1.2 -0.044
4.4359999 -1.211 -0.059
4.4096665 -1.193 -0.054999996
4.4380002 -1.1799999 -0.057
4.442667 -1.17 -0.052000001
4.447 -1.155 -0.041999999
2.424 -1.135 -0.057
4.4549999 -1.137 -0.054000001
2.296 -1.099 -0.052000001
4.4530001 -1.096 -0.052000001
2.174 -1.062 -0.048
4.448 -1.063 -0.041999999
4.4759998 -1.062 -0.050000001
4.4530001 -1.048 -0.046
2.0639999 -1.03 -0.044
4.4549999 -1.031 -0.048999999
4.4710002 -1.021 -0.046999998
1.62 -1.02 -0.052000001
4.4660001 -1.016 -0.052000001
1.604 -0.99299997 -0.052000001
4.473 -0.99100006 -0.050000001
1.6094999 -0.972 -0.0535
4.473 -0.97049999 -0.058499999
4.487 -0.94700003 -0.043000001
4.4949999 -0.91000003 -0.041999999
1.609 -0.88099998 -0.057999998
4.4970002 -0.87099999 -0.059
4.5 -0.84799999 -0.057
4.506 -0.82599998 -0.056000002
4.5100002 -0.80299997 -0.055
4.526 -0.79400003 -0.041000001
4.5190001 -0.77999997 -0.054000001
4.5285001 -0.75600004 -0.047499999
4.5310001 -0.73100001 -0.052000001
4.5489998 -0.72100002 -0.044
4.5349998 -0.70499998 -0.050999999
4.5539999 -0.68300003 -0.045000002
4.5430002 -0.67900002 -0.050999999
4.5440001 -0.653 -0.050000001
4.5679998 -0.64700001 -0.046
4.5539999 -0.62699997 -0.050000001
4.5675001 -0.60450006 -0.048500001
4.6459999 -0.583 -0.050999999
4.6690001 -0.58399999 -0.048999999
2.8369999 -0.289 -0.046
2.816 -0.26800001 -0.046
2.8180001 -0.249 -0.045000002
2.8199999 -0.23100001 -0.045000002
2.8329999 -0.212 -0.044
2.848 -0.19400001 -0.044
2.872 -0.176 -0.044
2.7909999 -0.067000002 -0.059999999
2.766 -0.045000002 -0.059999999
2.753 -0.024 -0.059999999
2.7479999 -0.003 -0.059999999
2.75 0.016000001 -0.059999999
3.9760001 0.63300002 -0.046999998
3.967 0.65499997 -0.048
3.9189999 0.67000002 -0.048999999
3.937 0.66600001 -0.052000001
3.948 0.66500002 -0.052000001
4.1589999 0.66900003 -0.056000002
3.8199999 0.69700003 -0.050000001
3.8746669 0.68599993 -0.050999999
3.7809999 0.71100003 -0.050999999
3.8099999 0.70700002 -0.050499998
4.3730001 0.70099998 -0.056000002
3.687 0.73400003 -0.054000001
3.7360001 0.72299999 -0.052000001
3.7479999 0.72749996 -0.0495
3.6570001 0.74699998 -0.055
3.6880002 0.74699998 -0.048500001
3.6010001 0.77200001 -0.057999998
3.6289997 0.76366663 -0.050999999
3.5280001 0.79299998 -0.059999999
3.5719998 0.78399998 -0.051333334
3.4449999 0.81800002 -0.050999999
3.474 0.81 -0.054000001
3.5120001 0.80250001 -0.055500001
3.424 0.82599998 -0.048
3.47 0.82099998 -0.055
3.4349999 0.85399997 -0.041999999
3.4445 0.84450001 -0.050500002
3.4489999 0.87699997 -0.057
3.5009999 1.252 -0.059999999
3.4649999 1.272 -0.057
3.4590001 1.304 -0.054000001
4.2579999 -1.836 -0.039000001
4.2610002 -1.799 -0.037
2.0939999 -1.7716666 -0.034333333
4.2670002 -1.761 -0.034000002
2.0469999 -1.748 -0.035999998
2.1015 -1.7525001 -0.031500001
2.1100001 -1.735 -0.0295
4.2750001 -1.721 -0.029999999
2.0910001 -1.7085 -0.021
2.1135001 -1.7105 -0.0275
2.0999999 -1.694 -0.022
2.1114998 -1.687 -0.024500001
2.128 -1.683 -0.026000001
4.2859998 -1.684 -0.026000001
2.1139998 -1.6670001 -0.023499999
2.1340001 -1.671 -0.025
2.1294999 -1.652 -0.024500001
4.296 -1.646 -0.023
2.1333334 -1.6316667 -0.023999998
2.1440001 -1.625 -0.024
2.1455002 -1.6085 -0.024
2.1494999 -1.5925 -0.024
2.1515 -1.5745001 -0.024
2.164 -1.562 -0.024
2.1489999 -1.554 -0.023
2.1719999 -1.546 -0.025
2.1589999 -1.54 -0.023
2.175 -1.528 -0.025
2.1589999 -1.52 -0.022
2.1689999 -1.505 -0.021
2.1849999 -1.513 -0.025
2.1719999 -1.4859999 -0.021
2.1900001 -1.495 -0.026000001
2.198 -1.479 -0.027000001
2.198 -1.457 -0.027000001
2.2079999 -1.4300001 -0.0285
1.55 -1.331 -0.0285
2.2460001 -1.3049999 -0.035999998
2.878 -1.273 -0.029999999
2.902 -1.28 -0.024
2.2030001 -1.257 -0.037
2.0539999 -1.215 -0.032000002
2.697 -1.219 -0.029999999
4.40275 -1.202 -0.030749999
2.53 -1.169 -0.030999999
4.4289999 -1.165 -0.021
4.447 -1.1440001 -0.037999999
2.381 -1.124 -0.030999999
4.4350004 -1.1285 -0.023
4.4514999 -1.1275001 -0.030999999
4.4365001 -1.1115 -0.028999999
4.4450002 -1.1059999 -0.025
2.256 -1.0880001 -0.030999999
4.4516664 -1.0933334 -0.027333334
4.4460001 -1.0779999 -0.039000001
1.651 -1.044 -0.022
2.1300001 -1.049 -0.030999999
4.4580002 -1.054 -0.028000001
1.6 -1.003 -0.039999999
2.029 -1.02 -0.032000002
4.467 -1.016 -0.029999999
1.598 -0.99400002 -0.022
1.604 -0.98449999 -0.030999999
1.649 -0.98299998 -0.037999999
1.933 -0.991 -0.032000002
1.9630001 -0.99900001 -0.039999999
1.6110001 -0.97250003 -0.030999999
1.876 -0.97399998 -0.037
4.48 -0.98000002 -0.032000002
1.786 -0.94499999 -0.034000002
1.835 -0.95999998 -0.032000002
4.4910002 -0.94300002 -0.034000002
1.7079999 -0.92199999 -0.032000002
1.752 -0.935 -0.032000002
1.62 -0.90799999 -0.028000001
1.6565001 -0.90600002 -0.030999999
4.494 -0.90399998 -0.035999998
1.596 -0.89300001 -0.032499999
4.5105 -0.87150002 -0.038999997
4.513 -0.82999998 -0.039000001
4.5279999 -0.83899999 -0.037999999
4.5349998 -0.801 -0.037
4.5430002 -0.764 -0.035999998
4.5580001 -0.72799999 -0.034000002
4.559 -0.69 -0.033
4.572 -0.65399998 -0.032000002
4.5819998 -0.61699998 -0.030999999
5.105 -0.60299999 -0.033
4.6539998 -0.588 -0.030999999
2.823 -0.30700001 -0.029999999
2.846 -0.303 -0.030999999
2.829 -0.28299999 -0.030999999
2.809 -0.26199999 -0.030999999
2.8169999 -0.252 -0.031500001
2.8309999 -0.23249999 -0.031500001
2.835 -0.2115 -0.032499999
2.8565001 -0.1925 -0.032499999
2.878 -0.171 -0.034000002
2.747 -0.079999998 -0.030999999
2.7939999 -0.068000004 -0.035
2.8 -0.072999999 -0.039999999
2.7746665 -0.052666664 -0.035333335
2.7360001 -0.037 -0.029999999
2.7540002 -0.028999999 -0.037
2.7305 -0.0135 -0.033500001
2.744 -0.0070000002 -0.035999998
2.7019999 0.003 -0.029999999
2.7344999 0.0099999998 -0.035999998
2.7360001 0.024 -0.029999999
2.7409999 0.0305 -0.036499999
2.7706668 0.049333334 -0.034666669
3.9890001 0.64700001 -0.025
3.8970001 0.67699999 -0.022
3.9430001 0.66299999 -0.024
3.8529999 0.69099998 -0.021
3.46 0.81900001 -0.037
3.5150001 0.80199999 -0.039999999
3.4384999 0.85049999 -0.028499998
3.3924999 0.86800003 -0.030999999
3.4389999 0.866 -0.039000001
3.4405 0.87199998 -0.0295
2.0780001 -1.768 -0.014
2.069 -1.7479999 -0.0165
2.075 -1.7325001 -0.0185
2.082 -1.721 -0.02
4.3049998 -1.609 -0.02
4.3140001 -1.571 -0.016000001
1.7920001 -1.531 -0.011
4.3249998 -1.533 -0.013
4.329 -1.494 -0.0099999998
2.1800001 -1.47 -0.02
2.1830001 -1.45 -0.018999999
4.336 -1.455 -0.0070000002
2.1849999 -1.429 -0.017999999
4.3559999 -1.426 -0.0020000001
2.1930001 -1.4119999 -0.017000001
4.348 -1.418 -0.003
4.3720002 -1.391 -0.0049999999
4.3790002 -1.352 -0.0080000004
4.3930001 -1.316 -0.011
2.2279999 -1.296 -0.0089999996
4.3909998 -1.275 -0.013
2.7079999 -1.222 -0.02
4.408 -1.24 -0.016000001
2.0339999 -1.205 -0.0089999996
4.402 -1.201 -0.017000001
4.4219999 -1.204 -0.018999999
4.3969998 -1.194 -0.0070000002
4.4045 -1.1949999 -0.0065000001
2.5480001 -1.174 -0.017000001
4.4180002 -1.1670001 -0.0040000002
4.4215002 -1.1535001 -0.0115
2.3970001 -1.1289999 -0.014
4.4250002 -1.1390001 -0.018999999
2.2720001 -1.0930001 -0.012
4.4485002 -1.0699999 -0.015000001
1.6619999 -1.053 -0.012
2.1470001 -1.0549999 -0.0089999996
4.4530001 -1.0470001 -0.0099999998
2.046 -1.026 -0.0070000002
4.467 -1.033 -0.0070000002
4.4710002 -1.016 -0.0040000002
1.581 -0.986 -0.0099999998
1.9450001 -0.995 -0.0049999999
4.474 -0.99900001 -0.001
1.589 -0.97399998 -0.0089999996
1.864 -0.97299999 -0.0040000002
1.5930001 -0.95999998 -0.0080000004
1.776 -0.94499999 -0.0020000001
1.698 -0.92199999 -0.001
1.625 -0.89499998 -0.003
1.647 -0.88999999 -0.001
4.5219998 -0.78100002 -0.001
4.533 -0.75700003 -0.0020000001
4.5359998 -0.73199999 -0.0020000001
4.5430002 -0.70700002 -0.003
4.5469999 -0.68099999 -0.003
4.5510001 -0.65499997 -0.003
4.5560002 -0.62800002 -0.0040000002
4.5669999 -0.60100001 -0.0040000002
5.085 -0.60600001 -0.0040000002
4.6479998 -0.583 -0.0040000002
2.836 -0.30699998 -0.0094999997
2.822 -0.287 -0.017000001
2.799 -0.26199999 -0.017000001
2.8069999 -0.28 -0.001
2.789 -0.25999999 -0.001
2.809 -0.241 -0.017000001
2.8310001 -0.22 -0.017000001
2.852 -0.199 -0.017000001
2.8180001 -0.175 -0.016000001
2.8310001 -0.088 -0.017000001
2.777 -0.064000003 -0.017000001
2.74 -0.043000001 -0.016000001
2.7290001 -0.022 -0.017000001
2.698 -0.001 -0.017000001
2.7260001 0.017999999 -0.017000001
3.7620001 0.71600002 -0.017999999
3.809 0.704 -0.018999999
3.723 0.72799999 -0.016000001
3.658 0.75300002 -0.012
3.694 0.74199998 -0.014
3.5940001 0.77499998 -0.0080000004
3.6300001 0.76499999 -0.0099999998
3.5355 0.79299998 -0.0039999997
3.5644999 0.78299999 -0.0039999997
3.451 0.81900001 -0.012
3.4779999 0.81099999 -0.0099999998
3.5090001 0.80199999 -0.0070000002
3.425 0.82700002 -0.015
3.428 0.84100002 -0.017999999
3.4530001 0.88300002 -0.0020000001
3.457 0.91399997 -0.0040000002
3.457 0.94400001 -0.0049999999
2.9960001 1.473 -0.003
2.921 1.494 -0.0070000002
2.957 1.483 -0.0049999999
2.816 1.516 -0.0089999996
2.852 1.516 -0.011
2.8840001 1.5039999 -0.0089999996
2.813 1.524 -0.013
2.882 1.521 -0.012
2.0710001 -1.7640001 0.0060000001
2.0799999 -1.7640001 0.0070000002
2.085 -1.753 0.0094999997
2.0844998 -1.7309999 0.0115
2.0964999 -1.7145 0.0135
2.096 -1.686 0.018999999
2.1034999 -1.6925 0.015
2.1085 -1.6687499 0.017250001
2.115 -1.653 0.017999999
2.1229999 -1.651 0.017000001
4.3010001 -1.655 0.016000001
2.112 -1.6339999 0.017000001
2.1309998 -1.6306667 0.017000001
2.138 -1.613 0.017000001
4.3119998 -1.618 0.013
2.1359999 -1.5925 0.017000001
2.141 -1.581 0.017000001
2.1459999 -1.5705 0.017000001
4.323 -1.58 0.0099999998
2.1513333 -1.5493332 0.016999999
4.3280001 -1.541 0.0070000002
2.1570001 -1.5274999 0.017000001
2.1645 -1.5115 0.016999999
4.3410001 -1.5039999 0.003
2.168 -1.4920001 0.016999999
2.171 -1.467 0.014
4.3499999 -1.466 0
2.181 -1.452 0.013
2.184 -1.433 0.012
2.1889999 -1.414 0.011
4.3600001 -1.382 0
4.3639998 -1.3430001 0.0020000001
2.2279999 -1.301 0.0040000002
4.3769999 -1.307 0.0040000002
2.2349999 -1.2819999 0.0020000001
4.3940001 -1.272 0.0070000002
2.753 -1.237 0.016000001
4.3870001 -1.23 0.0099999998
2.5869999 -1.188 0.013
4.3979998 -1.193 0.012
4.4095001 -1.18625 0.0080000004
4.3990002 -1.179 0.0080000004
4.4063334 -1.1703334 0.010333333
2.4349999 -1.143 0.0099999998
4.4070001 -1.156 0.015
4.415 -1.118 0.017000001
1.704 -1.0829999 0.0080000004
2.2920001 -1.099 0.0080000004
1.811 -1.076 0.0040000002
2.177 -1.066 0.0060000001
2.0610001 -1.03 0.0040000002
1.964 -1.001 0.0020000001
4.46 -1.0089999 0.018999999
1.5764999 -0.99000001 0.011500001
1.5829999 -0.98199999 0.017999999
4.4640002 -0.991 0.016000001
4.48 -0.98100001 0.001
1.5873333 -0.96833342 0.0096666664
1.854 -0.96499997 0
4.4699998 -0.97299999 0.013
4.4860001 -0.96200001 0.003
1.785 -0.94700003 0
4.4689999 -0.95300001 0.011
4.4879999 -0.94199997 0.0060000001
4.4770002 -0.93400002 0.0080000004
4.4949999 -0.92199999 0.0080000004
1.627 -0.90799999 0
4.48 -0.91299999 0.0070000002
4.4829998 -0.89450002 0.0074999998
4.4885001 -0.87349999 0.0075000003
4.4924998 -0.85149997 0.0075000003
4.4990001 -0.83200002 0.015
4.507 -0.82700002 0
4.5080004 -0.80599999 0.0080000004
4.5289998 -0.78899997 0.017999999
4.533 -0.76499999 0.017999999
4.5409999 -0.74000001 0.018999999
2.8329999 -0.30849999 0.013
2.8145001 -0.28650001 0.0125
2.7880001 -0.26499999 0.012
2.803 -0.26199999 0.012
2.79 -0.24699999 0.011
2.8125 -0.242 0.0060000001
2.8110001 -0.23 0.011
2.8239999 -0.226 0
2.8293333 -0.213 0.0076666665
2.8329999 -0.197 0.012
2.8510001 -0.19150001 0.0055
2.8610001 -0.176 0.0099999998
2.77 -0.082999997 0.011
2.7909999 -0.086999997 0.003
2.7349999 -0.061000001 0.011
2.77 -0.067000002 0.003
2.7809999 -0.072999999 0.0070000002
2.7019999 -0.045000002 0.0040000002
2.74 -0.052000001 0.0070000002
2.7113333 -0.032333333 0.0073333331
2.6700001 -0.0060000001 0.0049999999
2.6860001 -0.012 0.0060000001
2.7119999 -0.018999999 0.011
2.6900001 0.013 0.0049999999
2.704 0.021 0.011
2.7160001 0.041999999 0.012
2.7635 0.050999999 0.0055
3.9649999 0.65399998 0.014
4.0089998 0.648 0.011
3.908 0.667 0.013
3.9300001 0.66799998 0.0099999998
3.95 0.662 0.0089999996
3.8139999 0.69499999 0.0099999998
3.858 0.68099999 0.011
3.8629999 0.68900001 0.0089999996
3.8889999 0.68400002 0.0089999996
3.766 0.708 0.0080000004
3.7980001 0.70999998 0.0080000004
3.8199999 0.704 0.0099999998
3.694 0.73400003 0.0049999999
3.7319999 0.72500002 0.0065000001
3.756 0.72399998 0.011
3.6229999 0.75800002 0.001
3.6700001 0.74849999 0.0039999997
3.704 0.745 0.012
3.5929999 0.76999998 0
3.622 0.76899999 0.0040000002
3.642 0.764 0.013
3.566 0.787 0.003
3.586 0.78200001 0.014
3.4849999 0.81300002 0.001
3.5110002 0.80500001 0.00050000002
3.539 0.80199999 0.016000001
3.4259999 0.83366662 0.011666666
3.4519999 0.82200003 0
3.461 0.82099998 0.0040000002
3.4849999 0.81999999 0.017000001
3.421 0.85000002 0.013
3.444 0.85000002 0
3.4300001 0.86950004 0.0175
3.4920001 0.97600001 0.018999999
3.289 1.391 0.014
3.197 1.414 0.0080000004
3.2335 1.4089999 0.0105
3.118 1.4299999 0.014
3.158 1.428 0.0060000001
3.168 1.4220001 0.012
3.073 1.45 0.001
3.0899999 1.447 0.017000001
3.1170001 1.4400001 0.003
3.5079999 1.45 0.017000001
3.0320001 1.46 0
3.053 1.46 0.018999999
4.2509999 -1.845 0.034000002
4.25 -1.826 0.032000002
4.2589998 -1.8049999 0.029999999
4.2620001 -1.789 0.035
4.2680001 -1.767 0.027000001
2.0699999 -1.7503333 0.026000001
4.2680001 -1.75 0.039000001
2.0780001 -1.737 0.024
2.085 -1.7309999 0.022
4.276 -1.729 0.023
2.092 -1.7113333 0.020666666
4.289 -1.692 0.02
2.168 -1.477 0.02
2.1760001 -1.46 0.021
2.181 -1.442 0.021
2.191 -1.426 0.023
2.194 -1.406 0.024
1.585 -1.353 0.037
2.223 -1.3099999 0.029999999
2.9779999 -1.309 0.02
2.2219999 -1.2869999 0.030999999
2.8570001 -1.268 0.025
2.675 -1.214 0.026000001
4.4045 -1.202 0.033500001
4.4054999 -1.197 0.022500001
2.51 -1.165 0.026000001
4.4064999 -1.1524999 0.0255
2.365 -1.1210001 0.026000001
4.4115 -1.133 0.034000002
2.2490001 -1.089 0.027000001
4.4299998 -1.0905 0.0295
4.441 -1.087 0.035
4.4439998 -1.073 0.030999999
1.86 -1.057 0.027000001
2.1240001 -1.05 0.027000001
4.4359999 -1.045 0.022
4.4499998 -1.05 0.026500002
2.0239999 -1.021 0.028000001
4.46 -1.027 0.021
1.705 -1.0190001 0.035
4.4450002 -1.008 0.024
1.572 -0.98799998 0.035999998
1.929 -0.99299997 0.028000001
4.4559999 -0.98199999 0.037999999
1.577 -0.97500002 0.035
1.5829999 -0.963 0.034000002
1.8430001 -0.96799999 0.028000001
4.4520001 -0.97000003 0.026000001
1.601 -0.95999998 0.02
1.758 -0.94099998 0.028000001
4.4650002 -0.94499999 0.035999998
4.461 -0.93400002 0.028000001
1.612 -0.91399997 0.029999999
1.625 -0.90399998 0.028999999
1.677 -0.91500002 0.028000001
4.4780002 -0.90799999 0.035
1.612 -0.88300002 0.026000001
4.4679999 -0.89700001 0.028999999
4.4840002 -0.86650002 0.031999998
4.4914999 -0.82949996 0.031999998
4.4980001 -0.78799999 0.034000002
4.5040002 -0.79699999 0.029999999
4.5170002 -0.76099998 0.028000001
4.5110002 -0.75199997 0.035999998
4.5219998 -0.72299999 0.027000001
4.5190001 -0.71499997 0.037
4.5489998 -0.71499997 0.02
4.5339999 -0.68699998 0.026000001
4.5549998 -0.68900001 0.02
4.527 -0.67900002 0.037999999
4.5619998 -0.66399997 0.021
4.5425 -0.64649999 0.032000002
4.5630002 -0.63599998 0.021
4.5570002 -0.61400002 0.024
4.5739999 -0.61000001 0.021
5.086 -0.61500001 0.023
5.1300001 -0.60600001 0.025
4.5890002 -0.58399999 0.021
4.6350002 -0.58600003 0.023
5.4109998 -0.333 0.022
2.826 -0.30700001 0.026000001
2.806 -0.28200001 0.026000001
2.7850001 -0.25799999 0.026000001
2.802 -0.237 0.026000001
2.8139999 -0.21600001 0.027000001
2.8469999 -0.19599999 0.027000001
2.7060001 -0.081 0.026000001
2.6830001 -0.059999999 0.025
2.6889999 -0.039999999 0.025
2.6719999 -0.018999999 0.025
2.6860001 0 0.025
2.7160001 0.02 0.025
2.7550001 0.041000001 0.025
3.9779999 0.64600003 0.037999999
3.888 0.67699999 0.039000001
3.9349999 0.662 0.037999999
3.4319999 0.86699998 0.02
3.4360001 0.88700002 0.023
3.444 0.89899999 0.027000001
3.451 0.90649998 0.026000001
3.4560001 0.92000002 0.034000002
3.46 0.92900002 0.037999999
3.4159999 0.954 0.025
3.4760001 0.94 0.024
3.4590001 0.96700001 0.023
3.4676666 0.96866673 0.031333331
3.451 1.057 0.032000002
3.5350001 1.051 0.029999999
3.5139999 1.108 0.035
3.5320001 1.146 0.037
3.5309999 1.161 0.039000001
3.543 1.197 0.037
3.552 1.233 0.035
3.497 1.2460001 0.032000002
3.4530001 1.263 0.028999999
3.4590001 1.2970001 0.027000001
3.477 1.337 0.025
3.484 1.373 0.022
3.497 1.4119999 0.02
2.9749999 1.478 0.035999998
3.0150001 1.472 0.021
3.0209999 1.47 0.037999999
2.947 1.495 0.028999999
2.977 1.483 0.023
2.908 1.506 0.027000001
2.931 1.516 0.030999999
2.7895 1.5295 0.0285
2.8295 1.5220001 0.0285
2.8870001 1.5235 0.028999999
2.0726669 -1.7526666 0.050999999
2.079 -1.738 0.052999999
2.086 -1.7249999 0.054499999
2.096 -1.707 0.056500003
4.2789998 -1.7130001 0.041999999
2.1069999 -1.6865001 0.057499997
2.112 -1.666 0.057999998
4.2880001 -1.674 0.046
2.1170001 -1.654 0.059
2.1229999 -1.641 0.059
2.1233332 -1.6273333 0.059
4.2919998 -1.635 0.048999999
2.1270001 -1.608 0.059
2.142 -1.6160001 0.059
2.1340001 -1.594 0.059
2.1494999 -1.5925 0.059
4.3049998 -1.599 0.052000001
2.1389999 -1.5779999 0.059
2.154 -1.566 0.059
4.3119998 -1.561 0.055
2.145 -1.5525 0.057999998
2.151 -1.526 0.057
4.322 -1.523 0.059
2.154 -1.507 0.057
2.1589999 -1.489 0.056000002
2.164 -1.471 0.055
2.174 -1.456 0.055
2.1830001 -1.4400001 0.054000001
2.1849999 -1.419 0.052999999
2.1300001 -1.3609999 0.050000001
2.224 -1.307 0.045000002
2.2320001 -1.288 0.043000001
4.3889999 -1.284 0.057999998
4.3920002 -1.244 0.055
2.638 -1.205 0.059
4.3990002 -1.206 0.052000001
4.4025002 -1.202 0.049500003
4.408 -1.169 0.050000001
2.4790001 -1.1569999 0.054000001
4.4180002 -1.145 0.056000002
4.414 -1.131 0.046999998
4.4265003 -1.1294999 0.0495
2.3429999 -1.117 0.048999999
4.4134998 -1.109 0.043000001
4.4310002 -1.112 0.043000001
1.705 -1.0880001 0.050000001
4.4159999 -1.089 0.048999999
4.4250002 -1.094 0.045000002
2.2130001 -1.077 0.045000002
4.4229999 -1.069 0.054499999
2.095 -1.041 0.041000001
4.4349999 -1.057 0.043000001
1.719 -1.026 0.054000001
4.4460001 -1.02 0.039999999
1.579 -0.991 0.046999998
1.589 -0.97300005 0.048500001
1.738 -0.93699998 0.059
1.62 -0.90700001 0.057999998
1.659 -0.912 0.057999998
1.678 -0.91500002 0.057
1.573 -0.88999999 0.052000001
1.5829999 -0.88 0.052999999
4.5500002 -0.60699999 0.039999999
4.7340002 -0.59200001 0.041999999
2.7969999 -0.308 0.057
2.842 -0.315 0.041999999
2.7884998 -0.28999999 0.049000002
2.776 -0.26899999 0.056000002
2.7809999 -0.27200001 0.041999999
2.757 -0.249 0.055
2.763 -0.252 0.041999999
2.7525001 -0.23199999 0.048500001
2.77 -0.213 0.054000001
2.7939999 -0.21799999 0.043000001
2.8169999 -0.20100001 0.044
2.809 -0.197 0.055
2.849 -0.184 0.045000002
2.802 -0.177 0.054000001
2.7449999 -0.097000003 0.050999999
2.6949999 -0.075999998 0.050000001
2.704 -0.079000004 0.045000002
2.6730001 -0.056000002 0.048999999
2.6900001 -0.059999999 0.046
2.6889999 -0.0385 0.047499999
2.674 -0.001 0.046999998
2.694 -0.0185 0.047499999
2.684 0.0020000001 0.048
2.707 0.017999999 0.048
2.7019999 0.022 0.046999998
2.7249999 0.037999999 0.048999999
2.7290001 0.043000001 0.048
3.8380001 0.68900001 0.039999999
3.75 0.71399999 0.041999999
3.7939999 0.70200002 0.041000001
3.6700001 0.73699999 0.044
3.7079999 0.72600001 0.043000001
3.6329999 0.74800003 0.046
3.5780001 0.77200001 0.048999999
3.6140001 0.76200002 0.048
3.5179999 0.79100001 0.052999999
3.552 0.78299999 0.050999999
3.4690001 0.81 0.057999998
3.4955001 0.80400002 0.056000002
3.441 0.824 0.055
3.4389999 0.85299999 0.054000001
3.451 0.88700002 0.052999999
3.4549999 0.93900001 0.057999998
3.4625001 0.9285 0.046499997
3.464143 0.95071441 0.050428569
3.4673331 0.96199995 0.04733333
3.47 0.98400003 0.048
3.477 1.017 0.046
3.49 1.052 0.045000002
3.5120001 1.09 0.043000001
3.517 1.124 0.041000001
3.55 1.184 0.039999999
3.592 1.232 0.043000001
3.5380001 1.2460001 0.045000002
3.4860001 1.261 0.046999998
3.4530001 1.281 0.048999999
3.464 1.318 0.052000001
3.483 1.358 0.055
3.2750001 1.395 0.056000002
3.4879999 1.393 0.057999998
3.181 1.419 0.050000001
3.2219999 1.405 0.052999999
3.138 1.431 0.046999998
3.0539999 1.455 0.041000001
3.0940001 1.442 0.044
2.086 -1.763 0.068000004
2.0569999 -1.748 0.068999998
2.096 -1.75 0.066
2.096 -1.725 0.064000003
2.0999999 -1.715 0.063000001
2.105 -1.705 0.061999999
2.1070001 -1.692 0.061999999
2.112 -1.6720001 0.0605
2.115 -1.65 0.059999999
2.1589999 -1.549 0.059999999
4.3119998 -1.546 0.079000004
2.1630001 -1.531 0.059999999
2.1659999 -1.512 0.059999999
4.3210001 -1.508 0.075000003
2.1689999 -1.493 0.061000001
4.329 -1.485 0.061999999
2.1789999 -1.478 0.061999999
4.3260002 -1.4680001 0.071999997
2.1789999 -1.457 0.061999999
4.3379998 -1.447 0.064999998
2.1894999 -1.4305 0.063500002
4.3390002 -1.431 0.068999998
4.3460002 -1.409 0.068000004
4.3520002 -1.3940001 0.066
1.5776666 -1.3673334 0.064000003
4.3600001 -1.373 0.071000002
1.5723333 -1.3546667 0.067000002
4.3600001 -1.3559999 0.063000001
1.561 -1.337 0.068999998
4.3670001 -1.335 0.074000001
2.2260001 -1.306 0.071000002
4.3670001 -1.318 0.059999999
2.2290001 -1.285 0.071999997
4.3730001 -1.2970001 0.075999998
4.3870001 -1.261 0.079000004
2.8115001 -1.2565 0.068999998
2.6289999 -1.201 0.071000002
4.3975 -1.1935 0.065500006
4.4029999 -1.1855 0.075499997
4.414 -1.1713333 0.07
2.4820001 -1.159 0.068999998
4.4229999 -1.156 0.061000001
2.3369999 -1.115 0.067000002
2.2160001 -1.08 0.066
2.1010001 -1.045 0.064000003
2.1329999 -1.0549999 0.079000004
4.4289999 -1.0470001 0.059999999
1.607 -1.021 0.066
4.4299998 -1.03 0.063000001
1.995 -1.013 0.063000001
4.4320002 -1.013 0.066
1.571 -0.99400002 0.064999998
1.585 -0.98950005 0.064999998
1.9095 -0.98650002 0.065499999
4.4349999 -0.99599999 0.068999998
1.5906667 -0.97000003 0.064000003
1.6 -0.96899998 0.066
4.441 -0.97899997 0.071999997
1.777 -0.94999999 0.078000002
1.814 -0.95899999 0.059999999
1.827 -0.95899999 0.064000003
4.4499998 -0.95050001 0.076000005
1.631 -0.93000001 0.059999999
1.704 -0.92799997 0.074000001
1.744 -0.93400002 0.059999999
4.4580002 -0.921 0.079000004
1.624 -0.91799998 0.068999998
1.647 -0.91399997 0.071000002
4.467 -0.90399998 0.078000002
4.4720001 -0.88200003 0.075999998
4.4759998 -0.861 0.075000003
4.4780002 -0.838 0.072999999
4.4910002 -0.81699997 0.071999997
4.4949999 -0.79299998 0.071000002
4.5 -0.76999998 0.07
4.5110002 -0.74599999 0.068999998
4.52 -0.722 0.068999998
4.527 -0.69700003 0.068000004
4.5310001 -0.671 0.068000004
4.5380001 -0.64499998 0.068000004
4.54 -0.61799997 0.068000004
4.9499998 -0.61199999 0.074000001
5.2810001 -0.62 0.079000004
4.5510001 -0.59100002 0.068000004
2.816 -0.322 0.061000001
2.845 -0.329 0.071000002
2.796 -0.301 0.07
2.786 -0.29699999 0.061000001
2.7735 -0.27450001 0.064999998
2.757 -0.252 0.068999998
2.7709999 -0.25099999 0.061000001
2.7505 -0.22850001 0.064499997
2.7880001 -0.21000001 0.066
2.832 -0.191 0.067000002
2.75 -0.101 0.068999998
2.7390001 -0.098999999 0.061999999
2.6930001 -0.078000002 0.064999998
2.675 -0.057999998 0.067000002
2.6819999 -0.057 0.061999999
2.6789999 -0.037 0.067000002
2.684 -0.037 0.063000001
2.6875 -0.017000001 0.065500006
2.6875 0.0020000001 0.065500006
2.7160001 0.022 0.066
2.737 0.022 0.068000004
2.7665 0.043000001 0.068499997
3.957 0.65700001 0.071000002
3.973 0.64899999 0.074000001
3.8859999 0.67799997 0.071000002
3.908 0.671 0.071999997
3.826 0.699 0.071000002
3.846 0.69199997 0.07
3.76 0.71899998 0.071000002
3.7809999 0.71200001 0.068000004
3.701 0.73900002 0.071000002
3.72 0.73199999 0.066
3.6440001 0.759 0.071000002
3.6600001 0.75099999 0.064000003
3.5910001 0.778 0.071999997
3.6010001 0.76899999 0.061999999
3.533 0.796 0.071999997
3.549 0.78899997 0.059999999
3.4419999 0.81699997 0.059999999
3.4790001 0.81400001 0.071999997
3.4170001 0.829 0.072999999
3.421 0.82599998 0.061999999
3.4285002 0.84649998 0.067499995
3.4359999 0.86900002 0.074333332
3.437 0.88866663 0.076666661
3.4489999 0.89700001 0.077
3.4419999 0.90849996 0.069499999
3.4506667 0.92766666 0.068666667
3.4590001 0.96700001 0.075000003
3.4626667 0.9643333 0.067000002
3.497 1.249 0.078000002
3.441 1.263 0.074000001
3.46 1.303 0.071999997
3.4719999 1.341 0.07
3.4909999 1.383 0.068000004
3.2179999 1.409 0.064000003
3.27 1.4 0.061999999
3.493 1.418 0.064999998
3.1400001 1.437 0.068000004
3.1830001 1.425 0.066
3.4960001 1.4299999 0.061000001
3.098 1.448 0.07
3.4719999 1.454 0.063000001
3.5079999 1.459 0.063000001
3.0239999 1.473 0.072999999
3.0610001 1.461 0.071999997
2.9460001 1.494 0.077
2.9860001 1.485 0.075000003
2.8710001 1.515 0.079000004
2.9100001 1.505 0.078000002
2.802 1.5369999 0.074000001
2.839 1.527 0.077
2.082 -1.767 0.093999997
4.2480001 -1.771 0.098999999
2.0886667 -1.7513334 0.095999993
2.0880001 -1.728 0.097999997
4.2600002 -1.734 0.096000001
2.095 -1.72 0.098999999
2.1010001 -1.712 0.098999999
2.1099999 -1.682 0.098999999
4.2690001 -1.696 0.092
1.954 -1.666 0.086999997
2.1155 -1.6684999 0.097499996
2.1210001 -1.654 0.096000001
4.2839999 -1.66 0.089000002
2.1240001 -1.635 0.094499998
4.2940001 -1.622 0.086000003
2.1335001 -1.6115 0.092500001
2.145 -1.5875 0.090999998
4.2979999 -1.582 0.082000002
2.152 -1.566 0.090000004
2.154 -1.549 0.090000004
2.1489999 -1.534 0.098999999
2.1600001 -1.535 0.089000002
2.1530001 -1.515 0.098999999
2.165 -1.5105 0.093500003
2.1693332 -1.4896666 0.091666669
2.1730001 -1.464 0.096000001
2.181 -1.471 0.089000002
2.178 -1.446 0.094999999
2.184 -1.451 0.089000002
2.1849999 -1.4300001 0.091499999
2.1929998 -1.413 0.091499999
2.2224998 -1.3075 0.090000004
2.2309999 -1.296 0.083999999
2.0999999 -1.251 0.088
2.1689999 -1.248 0.092
4.3930001 -1.224 0.082000002
4.4046001 -1.1899999 0.087400004
2.5250001 -1.173 0.098999999
4.4073334 -1.169 0.088999994
4.4084997 -1.1500001 0.092500001
2.3729999 -1.126 0.092
4.421 -1.112 0.089000002
2.257 -1.094 0.086000003
2.151 -1.062 0.098999999
4.4299998 -1.075 0.090999998
2.096 -1.046 0.097000003
4.4250002 -1.048 0.098999999
2.043 -1.029 0.093000002
4.4375 -1.0355 0.094999999
1.5779999 -1.0039999 0.090999998
1.952 -1.003 0.088
2.006 -1.02 0.093999997
4.4330001 -1.015 0.092
4.4489999 -1.001 0.096000001
1.5785 -0.99000001 0.093999997
1.585 -0.99299997 0.090000004
1.918 -0.99400002 0.092
4.4369998 -0.99800003 0.090000004
1.5886666 -0.97199994 0.090333335
1.6210001 -0.977 0.097000003
1.832 -0.96799999 0.089000002
1.858 -0.97399998 0.082999997
4.447 -0.96866661 0.089666665
1.753 -0.94300002 0.086999997
4.4530001 -0.94300002 0.082000002
1.6305001 -0.92949998 0.092
1.681 -0.921 0.085000001
4.454 -0.92199999 0.079999998
1.6109999 -0.90499997 0.097999997
1.63 -0.90899998 0.083999999
4.4629998 -0.90100002 0.081
4.4699998 -0.88 0.082999997
4.4699998 -0.85699999 0.085000001
4.474 -0.83499998 0.086000003
4.4770002 -0.81199998 0.088
4.4809999 -0.78799999 0.089000002
4.4920001 -0.76499999 0.090000004
4.4959998 -0.741 0.090999998
4.5050001 -0.71600002 0.090999998
4.5120001 -0.69099998 0.092
4.5159998 -0.66500002 0.092
4.5190001 -0.63800001 0.093000002
4.5320001 -0.61299998 0.093000002
4.5370002 -0.58600003 0.093000002
2.744 -0.285 0.098999999
2.7349999 -0.271 0.097999997
2.7420001 -0.26100001 0.098999999
2.7465 -0.2475 0.098499998
2.753 -0.236 0.097999997
2.767 -0.21799999 0.097999997
2.779 -0.2 0.097999997
2.786 -0.182 0.097999997
2.7390001 -0.102 0.093999997
2.7190001 -0.081 0.093000002
2.737 -0.098999999 0.097999997
2.684 -0.061000001 0.090999998
2.7190001 -0.078000002 0.097000003
2.6489999 -0.041000001 0.089000002
2.6760001 -0.056000002 0.096000001
2.6719999 -0.0285 0.093000002
2.6719999 -0.015 0.096000001
2.6849999 -0.0020000001 0.090000004
2.6865001 0.011 0.092500001
2.711 0.027000001 0.097000003
2.753 0.037999999 0.090999998
3.507 0.79900002 0.097000003
3.5250001 0.78799999 0.098999999
3.451 0.815 0.092
3.477 0.80699998 0.093999997
3.424 0.82850003 0.088
3.4165001 0.85150003 0.083000004
3.4299998 0.87199998 0.089499995
3.4419999 0.89899999 0.082999997
3.4463332 0.912 0.092
3.4505 0.93050003 0.096499994
3.4489999 0.94 0.096000001
3.4563334 0.96399999 0.092
3.4657497 0.97000003 0.084999993
3.4749999 1.012 0.093000002
3.4890001 1.002 0.083999999
3.4979999 1.036 0.086999997
3.4849999 1.0470001 0.090999998
3.503 1.069 0.089000002
3.4979999 1.084 0.089000002
3.5009999 1.1 0.090999998
3.5145001 1.1289999 0.090999998
3.5280001 1.159 0.086000003
3.53 1.174 0.097000003
3.546 1.199 0.083999999
3.5480001 1.234 0.081
3.053 1.455 0.093999997
3.099 1.446 0.097000003
3.0190001 1.47 0.090999998
2.9489999 1.4960001 0.085000001
2.9820001 1.482 0.088
2.872 1.5140001 0.079999998
2.904 1.503 0.082000002
2.7490001 1.533 0.083999999
2.812 1.539 0.082999997
2.8410001 1.527 0.081
4.2270002 -1.847 0.1045
4.2449999 -1.813 0.104
4.2579999 -1.778 0.109
2.0932858 -1.7302856 0.11457143
4.2670002 -1.74 0.112
2.0970001 -1.7185 0.1075
2.102 -1.709 0.1045
4.2740002 -1.701 0.115
2.10675 -1.69475 0.101
2.1139998 -1.6675 0.101
4.283 -1.663 0.118
2.1240001 -1.65 0.101
2.1259999 -1.6339999 0.101
2.1359999 -1.6135 0.101
2.1459999 -1.592 0.101
2.1440001 -1.571 0.101
2.152 -1.556 0.1
1.67 -1.337 0.113
1.584 -1.283 0.11
1.61 -1.296 0.11
2.227 -1.286 0.118
1.5455 -1.2650001 0.1095
1.561 -1.27 0.109
2.869 -1.276 0.117
1.5161667 -1.2528334 0.11716667
1.525 -1.2582499 0.1125
2.7720001 -1.248 0.115
2.6830001 -1.22 0.107
4.3985 -1.2019999 0.112
4.4014997 -1.2014999 0.1065
2.602 -1.197 0.111
4.3979998 -1.168 0.118
1.926 -1.15 0.105
2.4530001 -1.152 0.106
4.4089999 -1.142 0.103
2.402 -1.137 0.113
4.408 -1.1315 0.11149999
2.3280001 -1.1160001 0.103
4.4115 -1.11175 0.11475
2.2679999 -1.097 0.106
4.4180002 -1.094 0.112
2.204 -1.0779999 0.1
4.4235001 -1.071 0.104
4.4260001 -1.059 0.112
4.4330001 -1.023 0.11
1.572 -0.99000001 0.119
1.899 -0.99000001 0.118
4.4439998 -0.98699999 0.109
1.5755 -0.96899998 0.1175
1.812 -0.963 0.112
1.738 -0.94099998 0.107
1.744 -0.94400001 0.118
4.4520001 -0.95099998 0.107
1.675 -0.92299998 0.115
4.4650002 -0.92799997 0.1
1.6085 -0.90999997 0.1125
1.6670001 -0.92000002 0.102
4.4619999 -0.91500002 0.106
4.473 -0.89099997 0.101
4.4689999 -0.87800002 0.105
4.4814997 -0.84899998 0.1035
4.4895 -0.8125 0.104
4.4990001 -0.78200001 0.106
4.5029998 -0.77200001 0.102
4.5110002 -0.74599999 0.107
4.5089998 -0.736 0.101
4.5209999 -0.70899999 0.109
4.52 -0.69999999 0.101
4.526 -0.66849995 0.105
