# .PCD v0.7 - Point Cloud Data file format
VERSION 0.7
FIELDS x y z rgb
SIZE 4 4 4 4
TYPE F F F U
COUNT 1 1 1 1
WIDTH 1248
HEIGHT 1
VIEWPOINT 0 0 0 1 0 0 0
POINTS 1248
DATA ascii
2.4219999 -0.47 -0.14300001 1097859072
2.5510001 -0.49900001 -0.11 1099956224
2.687 -0.52999997 -0.072999999 1101004800
2.1229999 -0.421 -0.227 1103626240
2.211 -0.44100001 -0.20100001 1096810496
2.306 -0.46399999 -0.17200001 1096810496
2.425 -0.491 -0.142 1098907648
2.55 -0.52100003 -0.109 1099956224
2.687 -0.55299997 -0.071999997 1101004800
2.125 -0.44 -0.227 1103101952
2.2149999 -0.461 -0.2 1095761920
2.309 -0.484 -0.17200001 1096810496
2.431 -0.514 -0.142 1098907648
2.556 -0.54400003 -0.108 1099431936
2.694 -0.579 -0.071000002 1100480512
2.1229999 -0.458 -0.226 1102053376
2.22 -0.48199999 -0.2 1097859072
2.3139999 -0.50599998 -0.171 1096810496
2.4349999 -0.53600001 -0.141 1097859072
2.5599999 -0.56800002 -0.107 1099431936
2.698 -0.60299999 -0.07 1101004800
2.1270001 -0.477 -0.226 1102053376
2.227 -0.50300002 -0.2 1096810496
2.323 -0.528 -0.171 1097859072
2.4430001 -0.56 -0.141 1098907648
2.5610001 -0.59100002 -0.106 1099431936
2.7079999 -0.63 -0.068999998 1101004800
2.1289999 -0.49700001 -0.22499999 1099956224
2.227 -0.523 -0.199 1096810496
2.326 -0.55000001 -0.171 1097859072
2.444 -0.58200002 -0.14 1098907648
2.569 -0.616 -0.105 1099956224
2.7130001 -0.65499997 -0.068000004 1101004800
2.1340001 -0.51700002 -0.22499999 1099956224
2.227 -0.542 -0.199 1096810496
2.332 -0.57200003 -0.17 1096810496
2.448 -0.60399997 -0.139 1098907648
2.5769999 -0.64099997 -0.105 1100480512
2.7249999 -0.68300003 -0.067000002 1101004800
2.1359999 -0.53600001 -0.22499999 1099956224
2.2349999 -0.56400001 -0.198 1096810496
2.3329999 -0.59299999 -0.169 1097859072
2.4489999 -0.62699997 -0.138 1099431936
2.5880001 -0.667 -0.104 1100480512
2.737 -0.71100003 -0.066 1115947008
2.141 -0.55699998 -0.22400001 1099431936
2.237 -0.58499998 -0.198 1096810496
2.3369999 -0.61500001 -0.168 1098907648
2.457 -0.65100002 -0.13699999 1098907648
2.5940001 -0.69199997 -0.103 1100480512
2.1440001 -0.57700002 -0.22400001 1099431936
2.2379999 -0.60500002 -0.197 1096810496
2.342 -0.63800001 -0.168 1098907648
2.4630001 -0.67500001 -0.13600001 1098907648
2.595 -0.71600002 -0.101 1101004800
2.1429999 -0.59600002 -0.223 1099956224
2.2460001 -0.62800002 -0.197 1096810496
2.345 -0.66000003 -0.167 1097859072
2.47 -0.699 -0.13500001 1098907648
2.5899999 -0.73900002 -0.1 1101004800
2.148 -0.61699998 -0.223 1099431936
2.2520001 -0.64999998 -0.19599999 1098907648
2.355 -0.68400002 -0.167 1097859072
2.471 -0.72299999 -0.134 1098907648
2.1530001 -0.63800001 -0.222 1099956224
2.257 -0.67299998 -0.19599999 1097859072
2.151 -0.65700001 -0.221 1101004800
2.26 -0.69400001 -0.19499999 1097859072
2.1559999 -0.67900002 -0.221 1100480512
2.178 -0.829 -0.21699999 1107820544
2.2880001 -0.87599999 -0.189 1100480512
2.181 -0.852 -0.21600001 1109131264
2.293 -0.89999998 -0.18799999 1099956224
2.2 -0.96700001 -0.213 1110179840
2.3139999 -1.022 -0.184 1104150528
2.4289999 -1.0779999 -0.15099999 1102577664
2.572 -1.147 -0.115 1101529088
2.197 -0.98699999 -0.212 1108344832
2.319 -1.0470001 -0.183 1101529088
2.437 -1.1059999 -0.15000001 1106247680
2.5669999 -1.171 -0.113 1102053376
2.2019999 -1.011 -0.211 1109393408
2.323 -1.072 -0.182 1101529088
2.563 -1.1950001 -0.112 1103101952
2.2060001 -1.036 -0.211 1107820544
2.322 -1.094 -0.18099999 1102053376
2.4419999 -1.1569999 -0.148 1110966272
2.2119999 -1.061 -0.20999999 1108869120
2.3299999 -1.122 -0.18099999 1102053376
2.438 -1.1799999 -0.146 1110441984
2.2119999 -1.0829999 -0.20900001 1108082688
2.332 -1.146 -0.18000001 1102577664
2.4230001 -1.197 -0.14399999 1125515264
2.22 -1.109 -0.20900001 1108606976
2.335 -1.171 -0.17900001 1103626240
2.4170001 -1.2180001 -0.142 1125515264
2.221 -1.132 -0.20900001 1107558400
2.342 -1.199 -0.17900001 1110179840
2.414 -1.242 -0.141 1125515264
2.2290001 -1.159 -0.20900001 1110441984
2.346 -1.225 -0.178 1104150528
2.2360001 -1.1849999 -0.20900001 1111752704
2.3499999 -1.251 -0.177 1116078080
2.234 -1.2079999 -0.208 1112276992
2.3540001 -1.277 -0.177 1111490560
2.2320001 -1.229 -0.207 1110966272
2.3540001 -1.301 -0.176 1108869120
2.2390001 -1.256 -0.207 1113849856
2.2420001 -1.28 -0.207 1112801280
2.359 -1.352 -0.175 1109655552
2.244 -1.3049999 -0.207 1112539136
2.2449999 -1.3279999 -0.206 1110704128
2.5079999 -1.4960001 -0.138 1103101952
2.247 -1.352 -0.206 1109131264
2.3710001 -1.432 -0.17399999 1104150528
2.51 -1.523 -0.138 1110441984
2.247 -1.375 -0.206 1108344832
2.375 -1.459 -0.17399999 1103101952
2.2449999 -1.397 -0.206 1107820544
2.375 -1.483 -0.17399999 1102577664
2.503 -1.569 -0.13600001 1102577664
2.2449999 -1.42 -0.206 1106771968
2.3770001 -1.508 -0.17299999 1103101952
2.516 -1.603 -0.13699999 1102053376
2.2449999 -1.442 -0.206 1104674816
2.3729999 -1.53 -0.17299999 1102577664
2.513 -1.626 -0.13600001 1102053376
2.2460001 -1.466 -0.206 1103626240
2.3759999 -1.556 -0.17299999 1102577664
2.513 -1.652 -0.13600001 1102053376
2.244 -1.487 -0.206 1103626240
2.3770001 -1.58 -0.17299999 1102053376
2.5139999 -1.677 -0.13600001 1102577664
2.2420001 -1.508 -0.206 1104150528
2.378 -1.604 -0.17299999 1104150528
2.5150001 -1.7029999 -0.13600001 1103101952
2.244 -1.5319999 -0.207 1103626240
2.5079999 -1.723 -0.13500001 1103101952
2.247 -1.5549999 -0.207 1102053376
2.506 -1.7460001 -0.13500001 1105199104
2.2449999 -1.576 -0.208 1103626240
2.5 -1.765 -0.13500001 1107558400
2.2479999 -1.599 -0.20900001 1103626240
2.4949999 -1.786 -0.13500001 1106247680
2.247 -1.62 -0.20900001 1102053376
2.165 -1.581 -0.20200001 1086324736
2.1860001 -1.596 -0.205 1088421888
2.381 -1.728 -0.176 1104150528
2.2479999 -1.62 -0.20999999 1101004800
2.381 -1.706 -0.175 1103626240
2.474 -1.763 -0.133 1119092736
2.1259999 -1.523 -0.23899999 1099431936
2.257 -1.605 -0.20900001 1103101952
2.474 -1.74 -0.132 1117519872
2.142 -1.5140001 -0.23999999 1099956224
2.2650001 -1.59 -0.20900001 1101529088
2.471 -1.714 -0.131 1110704128
2.1429999 -1.494 -0.23800001 1099956224
2.263 -1.566 -0.207 1101004800
2.461 -1.683 -0.12899999 1117650944
2.1470001 -1.475 -0.237 1101004800
2.267 -1.5470001 -0.205 1102577664
2.1530001 -1.4579999 -0.235 1101529088
2.2690001 -1.525 -0.204 1102577664
2.1589999 -1.4400001 -0.234 1102053376
2.2739999 -1.506 -0.20200001 1103101952
2.1630001 -1.421 -0.23199999 1102053376
2.2750001 -1.484 -0.2 1102053376
2.1700001 -1.404 -0.23100001 1103101952
2.2839999 -1.467 -0.199 1102577664
2.174 -1.3839999 -0.229 1108869120
2.2880001 -1.446 -0.197 1103101952
2.181 -1.367 -0.228 1111752704
2.3 -1.4299999 -0.19599999 1108606976
2.187 -1.347 -0.226 1110441984
2.303 -1.409 -0.19400001 1108082688
2.1960001 -1.33 -0.22400001 1110441984
2.3110001 -1.39 -0.192 1110179840
2.197 -1.308 -0.222 1109393408
2.3139999 -1.368 -0.19 1109655552
2.2090001 -1.293 -0.221 1113849856
2.322 -1.349 -0.189 1109131264
2.2079999 -1.2690001 -0.21799999 1115422720
2.3280001 -1.3279999 -0.186 1111490560
2.21 -1.247 -0.21600001 1118961664
2.335 -1.308 -0.184 1116864512
2.4130001 -1.3430001 -0.146 1119092736
2.3269999 -1.279 -0.18099999 1097859072
2.3399999 -1.263 -0.18000001 1120665600
2.348 -1.243 -0.178 1102053376
2.454 -1.29 -0.141 1117257728
2.3540001 -1.222 -0.176 1099431936
2.474 -1.276 -0.14 1106771968
2.493 -1.26 -0.138 1103626240
2.23 -1.12 -0.20200001 1114374144
2.5 -1.238 -0.13600001 1102577664
2.2550001 -1.11 -0.20100001 1110966272
2.5039999 -1.215 -0.134 1101529088
2.267 -1.0930001 -0.2 1108606976
2.507 -1.192 -0.131 1104150528
2.2750001 -1.073 -0.198 1107820544
2.5250001 -1.175 -0.13 1102577664
2.2780001 -1.052 -0.19499999 1110441984
2.5350001 -1.154 -0.12800001 1101004800
2.2839999 -1.031 -0.193 1109131264
2.415 -1.0829999 -0.161 1101004800
2.5439999 -1.133 -0.125 1101004800
2.289 -1.011 -0.191 1109655552
2.4349999 -0.972 -0.15000001 1101529088
2.3280001 -0.91299999 -0.18099999 1107558400
2.332 -0.89200002 -0.17900001 1108869120
2.3870001 -0.71100003 -0.164 1101004800
2.3900001 -0.68900001 -0.162 1101004800
2.517 -0.72100002 -0.12899999 1098907648
2.3929999 -0.66900003 -0.16 1101004800
2.523 -0.69999999 -0.12800001 1098907648
2.661 -0.73299998 -0.090999998 1099956224
2.3959999 -0.648 -0.15899999 1100480512
2.523 -0.67699999 -0.126 1098907648
2.655 -0.708 -0.089000002 1099431936
2.813 -0.74400002 -0.048 1099431936
2.402 -0.62800002 -0.15800001 1100480512
2.526 -0.65499997 -0.124 1098907648
2.661 -0.685 -0.088 1099431936
2.812 -0.71899998 -0.046999998 1099431936
2.401 -0.60600001 -0.156 1101004800
2.5309999 -0.634 -0.123 1097859072
2.6689999 -0.66399997 -0.086000003 1099431936
2.8239999 -0.69800001 -0.046 1099431936
2.9849999 -0.73199999 0 1099956224
2.4059999 -0.58600003 -0.155 1100480512
2.5350001 -0.61199999 -0.122 1097859072
2.668 -0.63999999 -0.085000001 1098907648
2.8239999 -0.67299998 -0.044 1098907648
2.99 -0.70700002 0.001 1099431936
3.1500001 -0.741 0.052000001 1116602368
2.4070001 -0.565 -0.154 1099956224
2.5380001 -0.59100002 -0.121 1097859072
2.6730001 -0.61799997 -0.083999999 1098907648
2.8299999 -0.64899999 -0.043000001 1097859072
2.9920001 -0.68199998 0.0020000001 1099431936
3.1619999 -0.71600002 0.052999999 1114112000
2.4089999 -0.54400003 -0.152 1099956224
2.5409999 -0.56900001 -0.119 1097859072
2.678 -0.59500003 -0.082999997 1098907648
2.832 -0.625 -0.041999999 1097859072
2.994 -0.65600002 0.003 1099431936
3.1559999 -0.68699998 0.054000001 1106771968
2.408 -0.523 -0.15099999 1100480512
2.54 -0.54699999 -0.118 1097859072
2.6800001 -0.57200003 -0.082000002 1098907648
2.8340001 -0.60100001 -0.041000001 1097859072
2.9979999 -0.63099998 0.0040000002 1099431936
3.165 -0.662 0.055 1106771968
2.4089999 -0.50199997 -0.15000001 1099956224
2.54 -0.52499998 -0.117 1098907648
2.6789999 -0.54900002 -0.079999998 1097859072
2.835 -0.57700002 -0.039999999 1096810496
3.0009999 -0.60600001 0.0049999999 1099431936
3.1849999 -0.639 0.057 1107820544
2.4130001 -0.48199999 -0.149 1100480512
2.5439999 -0.50400001 -0.116 1097859072
2.678 -0.52600002 -0.079000004 1097859072
2.836 -0.55299997 -0.039000001 1097859072
3 -0.58099997 0.0060000001 1098907648
3.1919999 -0.61400002 0.057999998 1107558400
2.4159999 -0.46200001 -0.148 1100480512
2.5450001 -0.48199999 -0.115 1097859072
2.681 -0.50400001 -0.079000004 1096810496
2.8399999 -0.52999997 -0.037999999 1096810496
3.0050001 -0.55599999 0.0070000002 1098907648
3.1960001 -0.588 0.059 1105723392
2.4130001 -0.44 -0.147 1099956224
2.5539999 -0.46200001 -0.115 1097859072
2.681 -0.48100001 -0.078000002 1095761920
2.839 -0.50599998 -0.037 1096810496
3.007 -0.53200001 0.0080000004 1098907648
3.201 -0.56199998 0.059 1103101952
2.421 -0.421 -0.147 1099431936
2.549 -0.44 -0.114 1096810496
2.6819999 -0.45899999 -0.077 1095761920
2.836 -0.48100001 -0.035999998 1094713344
3.003 -0.50599998 0.0089999996 1097859072
3.197 -0.53500003 0.059999999 1102053376
2.4230001 -0.40099999 -0.146 1099431936
2.553 -0.419 -0.113 1096810496
2.6789999 -0.43599999 -0.075999998 1095761920
2.8399999 -0.458 -0.035 1095761920
3.007 -0.48100001 0.0089999996 1097859072
3.1989999 -0.50800002 0.061000001 1101529088
2.4260001 -0.38100001 -0.146 1099431936
2.553 -0.39700001 -0.113 1096810496
2.6830001 -0.414 -0.075999998 1096810496
2.839 -0.43399999 -0.035 1095761920
3.006 -0.456 0.0099999998 1097859072
3.1949999 -0.48100001 0.061000001 1101004800
2.428 -0.361 -0.145 1099431936
2.549 -0.375 -0.112 1096810496
2.6800001 -0.391 -0.075000003 1095761920
2.8380001 -0.41100001 -0.034000002 1095761920
3.0090001 -0.43200001 0.0099999998 1097859072
3.2019999 -0.456 0.061999999 1102053376
2.425 -0.34 -0.14399999 1098907648
2.553 -0.35499999 -0.111 1096810496
2.688 -0.37 -0.075000003 1096810496
2.8429999 -0.38800001 -0.034000002 1095761920
3.007 -0.40700001 0.011 1098907648
3.201 -0.43000001 0.061999999 1101529088
2.428 -0.31999999 -0.14399999 1099431936
2.552 -0.33399999 -0.111 1096810496
2.6889999 -0.34799999 -0.074000001 1095761920
2.8399999 -0.36399999 -0.033 1095761920
3.003 -0.382 0.011 1098907648
3.204 -0.40400001 0.063000001 1101004800
2.427 -0.30000001 -0.14399999 1099431936
2.556 -0.31299999 -0.111 1096810496
2.6789999 -0.32499999 -0.074000001 1096810496
2.8380001 -0.34099999 -0.033 1095761920
3.007 -0.35800001 0.011 1098907648
3.2060001 -0.37900001 0.063000001 1101004800
2.4260001 -0.28 -0.14300001 1099431936
2.553 -0.292 -0.11 1096810496
2.688 -0.30399999 -0.074000001 1096810496
2.842 -0.31799999 -0.033 1095761920
3.0090001 -0.33399999 0.012 1098907648
3.2049999 -0.35299999 0.063000001 1101004800
2.427 -0.26100001 -0.14300001 1099431936
2.556 -0.271 -0.11 1096810496
2.6849999 -0.28200001 -0.072999999 1096810496
2.8369999 -0.29499999 -0.033 1096810496
3.0090001 -0.31 0.012 1097859072
3.21 -0.32800001 0.063000001 1101529088
2.428 -0.241 -0.14300001 1099431936
2.55 -0.25 -0.11 1096810496
2.6849999 -0.25999999 -0.072999999 1096810496
2.8380001 -0.27200001 -0.033 1097859072
3.01 -0.28600001 0.012 1098907648
3.2060001 -0.301 0.063000001 1101004800
2.428 -0.221 -0.14300001 1098907648
2.552 -0.23 -0.11 1096810496
2.684 -0.23899999 -0.072999999 1096810496
2.8399999 -0.25 -0.033 1097859072
3.0120001 -0.26199999 0.012 1098907648
3.2060001 -0.27700001 0.063000001 1101004800
2.4300001 -0.20200001 -0.14300001 1098907648
2.5539999 -0.20999999 -0.11 1097859072
2.6849999 -0.21799999 -0.072999999 1096810496
2.8380001 -0.228 -0.033 1096810496
3.007 -0.23800001 0.012 1098907648
3.2060001 -0.25099999 0.063000001 1101004800
2.424 -0.182 -0.142 1098907648
2.5539999 -0.19 -0.11 1096810496
2.684 -0.197 -0.072999999 1096810496
2.836 -0.205 -0.033 1096810496
3.0020001 -0.214 0.012 1098907648
3.201 -0.226 0.063000001 1101004800
2.425 -0.163 -0.14300001 1098907648
2.552 -0.169 -0.11 1096810496
2.6800001 -0.175 -0.072999999 1096810496
2.832 -0.183 -0.033 1096810496
3 -0.191 0.012 1099431936
3.1949999 -0.20100001 0.063000001 1100480512
2.4260001 -0.14399999 -0.14300001 1099431936
2.5510001 -0.149 -0.11 1096810496
2.678 -0.155 -0.072999999 1096810496
2.8310001 -0.161 -0.033 1096810496
3.0009999 -0.168 0.011 1097859072
3.191 -0.176 0.061999999 1100480512
2.4289999 -0.125 -0.14300001 1099431936
2.5510001 -0.12899999 -0.11 1096810496
2.6789999 -0.134 -0.072999999 1096810496
2.836 -0.139 -0.033 1097859072
2.9990001 -0.145 0.011 1097859072
3.1919999 -0.152 0.061999999 1099956224
2.428 -0.107 -0.14300001 1098907648
2.549 -0.11 -0.11 1096810496
2.6800001 -0.113 -0.074000001 1096810496
2.829 -0.117 -0.033 1097859072
2.994 -0.122 0.011 1097859072
3.1889999 -0.127 0.061999999 1098907648
2.4219999 -0.088 -0.14300001 1098907648
2.55 -0.090000004 -0.11 1096810496
2.675 -0.092 -0.074000001 1096810496
2.8280001 -0.094999999 -0.034000002 1098907648
2.9949999 -0.098999999 0.011 1099431936
3.1860001 -0.103 0.061000001 1100480512
2.4219999 -0.068999998 -0.14300001 1099956224
2.55 -0.071000002 -0.111 1097859072
2.6730001 -0.071999997 -0.074000001 1097859072
2.825 -0.074000001 -0.034000002 1097859072
2.993 -0.075999998 0.0099999998 1099431936
3.1860001 -0.079000004 0.061000001 1100480512
2.4230001 -0.050000001 -0.14399999 1099431936
2.5550001 -0.050999999 -0.111 1098907648
2.6719999 -0.052000001 -0.074000001 1097859072
2.825 -0.052999999 -0.034000002 1098907648
2.9779999 -0.052999999 0.0099999998 1099431936
3.174 -0.055 0.059999999 1099956224
2.4230001 -0.032000002 -0.14399999 1099956224
2.543 -0.032000002 -0.111 1099431936
2.6589999 -0.030999999 -0.074000001 1098907648
2.825 -0.032000002 -0.035 1099956224
2.9809999 -0.030999999 0.0089999996 1099956224
3.1700001 -0.030999999 0.059999999 1100480512
2.4159999 -0.014 -0.14399999 1099956224
2.543 -0.013 -0.112 1099431936
2.668 -0.011 -0.075000003 1098907648
2.825 -0.0099999998 -0.035 1099956224
2.971 -0.0089999996 0.0089999996 1093664768
3.1630001 -0.0080000004 0.059 1100480512
2.4089999 0.0040000002 -0.14399999 1100480512
2.543 0.0049999999 -0.112 1099431936
2.6559999 0.0070000002 -0.075000003 1099431936
2.8239999 0.0089999996 -0.035 1099956224
2.9660001 0.012 0.0080000004 1094713344
3.1630001 0.015 0.059 1100480512
2.405 0.021 -0.14399999 1100480512
2.539 0.024 -0.112 1099431936
2.6559999 0.027000001 -0.075999998 1099431936
2.8199999 0.029999999 -0.035999998 1099431936
3.151 0.037999999 0.057999998 1102053376
2.405 0.039000001 -0.145 1100480512
2.5369999 0.043000001 -0.113 1099431936
2.654 0.046 -0.075999998 1098907648
2.809 0.050999999 -0.035999998 1099431936
2.961 0.055 0.0070000002 1102577664
3.1459999 0.061000001 0.057 1101529088
2.404 0.057 -0.145 1099956224
2.5320001 0.061000001 -0.113 1098907648
2.658 0.066 -0.077 1097859072
2.816 0.071000002 -0.037 1099431936
2.9660001 0.077 0.0070000002 1100480512
3.1429999 0.082999997 0.057 1101004800
2.4030001 0.074000001 -0.146 1099956224
2.5320001 0.079999998 -0.113 1098907648
2.6570001 0.085000001 -0.077 1098907648
2.806 0.090999998 -0.037 1098907648
2.961 0.097999997 0.0060000001 1099956224
3.1370001 0.105 0.056000002 1101004800
2.395 0.090999998 -0.146 1099956224
2.529 0.097999997 -0.114 1098907648
2.6489999 0.104 -0.077 1098907648
2.8039999 0.111 -0.037999999 1098907648
2.9590001 0.119 0.0060000001 1099956224
3.1370001 0.127 0.055 1101004800
2.3959999 0.109 -0.146 1100480512
2.5280001 0.116 -0.114 1097859072
2.6470001 0.122 -0.078000002 1098907648
2.7950001 0.131 -0.037999999 1099431936
2.954 0.139 0.0049999999 1100480512
3.1300001 0.149 0.055 1100480512
2.392 0.126 -0.147 1100480512
2.5220001 0.133 -0.115 1097859072
2.642 0.141 -0.078000002 1098907648
2.7939999 0.15000001 -0.039000001 1099431936
2.948 0.16 0.0049999999 1100480512
3.125 0.171 0.054000001 1100480512
2.3889999 0.142 -0.147 1101004800
2.5190001 0.15099999 -0.115 1097859072
2.6429999 0.15899999 -0.079000004 1098907648
2.7939999 0.17 -0.039000001 1099431936
2.9449999 0.18000001 0.0040000002 1101004800
3.1229999 0.192 0.054000001 1101004800
2.385 0.15899999 -0.147 1101529088
2.52 0.169 -0.115 1097859072
2.638 0.177 -0.079000004 1098907648
2.7909999 0.189 -0.039999999 1099431936
2.9460001 0.20100001 0.0040000002 1101004800
3.122 0.214 0.052999999 1101004800
2.3829999 0.175 -0.147 1102053376
2.5120001 0.186 -0.116 1098907648
2.6370001 0.19599999 -0.079999998 1098907648
2.7850001 0.208 -0.039999999 1099431936
2.941 0.221 0.003 1101004800
3.1199999 0.235 0.052999999 1101004800
2.381 0.192 -0.148 1103626240
2.513 0.20299999 -0.116 1098907648
2.6359999 0.214 -0.079999998 1098907648
2.7839999 0.227 -0.039999999 1099431936
2.9430001 0.241 0.003 1101529088
3.118 0.25600001 0.052000001 1101004800
2.3829999 0.208 -0.148 1105199104
2.5090001 0.22 -0.116 1098907648
2.6329999 0.23100001 -0.079999998 1098907648
2.7820001 0.245 -0.041000001 1099431936
2.9389999 0.25999999 0.0020000001 1101529088
3.1159999 0.27700001 0.052000001 1101004800
2.3770001 0.223 -0.148 1107296256
2.5039999 0.236 -0.117 1098907648
2.6300001 0.249 -0.081 1099431936
2.7809999 0.264 -0.041000001 1099956224
2.9360001 0.27900001 0.0020000001 1101529088
3.109 0.29699999 0.050999999 1101529088
2.3729999 0.23899999 -0.149 1107558400
2.5009999 0.252 -0.117 1099956224
2.6229999 0.26499999 -0.081 1099956224
2.779 0.28200001 -0.041000001 1100480512
2.9360001 0.29899999 0.0020000001 1101529088
3.112 0.31799999 0.050999999 1101529088
2.368 0.25400001 -0.149 1107558400
2.4979999 0.26899999 -0.117 1099956224
2.622 0.28299999 -0.081 1099956224
2.7709999 0.29899999 -0.041999999 1100480512
2.9300001 0.317 0.0020000001 1102053376
3.1129999 0.338 0.050999999 1102053376
2.372 0.27000001 -0.149 1109393408
2.493 0.28400001 -0.117 1099956224
2.618 0.29899999 -0.081 1101004800
2.7709999 0.317 -0.041999999 1100480512
2.9330001 0.336 0.001 1102053376
3.1040001 0.35699999 0.050999999 1102053376
2.3610001 0.28400001 -0.149 1110179840
2.4909999 0.30000001 -0.117 1099956224
2.612 0.315 -0.081 1096810496
2.7690001 0.33399999 -0.041999999 1100480512
2.9300001 0.35499999 0.001 1102577664
3.105 0.377 0.050999999 1102053376
2.3610001 0.29899999 -0.149 1109917696
2.4890001 0.31600001 -0.117 1099956224
2.6040001 0.331 -0.081 1104150528
2.7650001 0.35100001 -0.041999999 1100480512
2.9260001 0.373 0.001 1102053376
3.1010001 0.396 0.050000001 1102053376
2.358 0.31400001 -0.149 1111490560
2.487 0.331 -0.117 1101529088
2.5910001 0.345 -0.081 1091567616
2.7650001 0.36899999 -0.041999999 1100480512
2.9260001 0.391 0.001 1102053376
3.099 0.41499999 0.050000001 1103101952
2.3570001 0.32800001 -0.149 1111752704
2.4879999 0.34599999 -0.117 1101004800
2.76 0.38499999 -0.041999999 1101004800
2.921 0.40799999 0.001 1102577664
3.0929999 0.433 0.050999999 1102577664
2.355 0.34200001 -0.149 1111490560
2.483 0.361 -0.117 1101529088
2.7579999 0.40099999 -0.041999999 1101529088
2.9189999 0.42500001 0.001 1102053376
3.0940001 0.45199999 0.050999999 1102053376
2.3510001 0.35600001 -0.149 1111490560
2.483 0.37599999 -0.117 1101529088
2.7579999 0.41800001 -0.041999999 1102577664
2.921 0.44299999 0.0020000001 1102577664
3.0929999 0.47 0.050999999 1102053376
2.3529999 0.37 -0.149 1111490560
2.4779999 0.38999999 -0.117 1101529088
2.757 0.43399999 -0.041000001 1105723392
2.9189999 0.46000001 0.0020000001 1102577664
3.095 0.48800001 0.052000001 1102053376
2.3499999 0.38299999 -0.148 1113325568
2.483 0.405 -0.117 1102053376
2.596 0.42399999 -0.079999998 1086324736
2.7490001 0.449 -0.041000001 1088421888
2.924 0.47799999 0.0020000001 1102577664
3.096 0.50599998 0.052000001 1102577664
2.3510001 0.39700001 -0.148 1114898432
2.4809999 0.419 -0.116 1103626240
2.6040001 0.44 -0.079999998 1102577664
2.7449999 0.46399999 -0.039999999 1099956224
2.9219999 0.49399999 0.003 1102577664
3.099 0.52399999 0.052999999 1102577664
2.3469999 0.41 -0.148 1114898432
2.487 0.43399999 -0.116 1101529088
2.6059999 0.45500001 -0.079999998 1101529088
2.7460001 0.479 -0.039999999 1117519872
2.924 0.51099998 0.003 1103101952
3.102 0.542 0.052999999 1102577664
2.348 0.42300001 -0.147 1114374144
2.483 0.447 -0.116 1101529088
2.608 0.46900001 -0.079000004 1100480512
2.9200001 0.52600002 0.0040000002 1103626240
3.1010001 0.55900002 0.054000001 1103101952
2.3510001 0.43599999 -0.147 1115684864
2.483 0.461 -0.115 1102577664
2.609 0.484 -0.079000004 1100480512
2.9219999 0.542 0.0049999999 1106771968
3.108 0.57700002 0.055 1103101952
2.3499999 0.44800001 -0.146 1115422720
2.4860001 0.47400001 -0.114 1102053376
2.6110001 0.498 -0.078000002 1100480512
2.753 0.52499998 -0.037999999 1100480512
2.9159999 0.55599999 0.0060000001 1102577664
3.1070001 0.59299999 0.056000002 1102577664
2.3540001 0.46200001 -0.146 1114636288
2.4849999 0.48699999 -0.114 1102577664
2.6170001 0.51200002 -0.077 1100480512
2.7709999 0.542 -0.037 1101004800
2.914 0.57099998 0.0070000002 1125515264
3.1099999 0.60900003 0.057999998 1103101952
2.355 0.47299999 -0.145 1115947008
2.4860001 0.49900001 -0.113 1103626240
2.615 0.52499998 -0.075999998 1100480512
2.7720001 0.55599999 -0.035999998 1104150528
2.9119999 0.58499998 0.0080000004 1125580800
3.108 0.62400001 0.059 1106771968
2.359 0.486 -0.145 1115947008
2.49 0.51200002 -0.112 1104150528
2.6229999 0.54000002 -0.075000003 1101004800
2.7780001 0.57099998 -0.035 1103101952
2.9200001 0.60100001 0.0089999996 1125515264
3.118 0.64200002 0.059999999 1102577664
2.362 0.498 -0.14399999 1114898432
2.4879999 0.52399999 -0.111 1105199104
2.6300001 0.55299997 -0.075000003 1100480512
2.79 0.58700001 -0.034000002 1102577664
2.928 0.616 0.011 1104150528
3.1170001 0.65600002 0.061999999 1125515264
2.3670001 0.50999999 -0.14300001 1112014848
2.5 0.53799999 -0.11 1105199104
2.6289999 0.565 -0.072999999 1101004800
2.7920001 0.60000002 -0.032000002 1101529088
2.941 0.63200003 0.012 1107296256
3.1210001 0.67199999 0.064000003 1125515264
2.369 0.52100003 -0.142 1111752704
2.5039999 0.55000001 -0.109 1102053376
2.632 0.57800001 -0.071999997 1100480512
2.7980001 0.61400002 -0.030999999 1101529088
2.9489999 0.64700001 0.014 1104674816
3.1300001 0.68699998 0.066 1125515264
2.3740001 0.53299999 -0.141 1112539136
2.5050001 0.56099999 -0.108 1102053376
2.6370001 0.58999997 -0.07 1101004800
2.8039999 0.62699997 -0.028999999 1102053376
2.96 0.662 0.016000001 1104674816
3.141 0.70300001 0.068000004 1106771968
2.3829999 0.54400003 -0.14 1112801280
2.5109999 0.57300001 -0.106 1101529088
2.6440001 0.60299999 -0.068999998 1102053376
2.8050001 0.639 -0.027000001 1102053376
2.964 0.676 0.017999999 1104150528
3.1559999 0.72000003 0.071000002 1103101952
2.3829999 0.55400002 -0.139 1110441984
2.5109999 0.583 -0.105 1101529088
2.6500001 0.61500001 -0.067000002 1101529088
2.8080001 0.65100002 -0.026000001 1102577664
2.971 0.68900001 0.02 1103101952
3.168 0.73500001 0.072999999 1101529088
2.388 0.56400001 -0.13699999 1111752704
2.5190001 0.59500003 -0.103 1100480512
2.652 0.625 -0.066 1101004800
2.8169999 0.66399997 -0.024 1102577664
2.9820001 0.70300001 0.022 1102577664
3.175 0.74900001 0.075999998 1102053376
2.3940001 0.574 -0.13600001 1109917696
2.5220001 0.60500002 -0.102 1100480512
2.6619999 0.63800001 -0.064000003 1101004800
2.8199999 0.67500001 -0.022 1103101952
2.994 0.71700001 0.025 1103101952
3.1819999 0.76200002 0.078000002 1101004800
2.398 0.58399999 -0.134 1111752704
2.529 0.61500001 -0.1 1100480512
2.668 0.648 -0.061999999 1101004800
2.8269999 0.68699998 -0.018999999 1103101952
2.994 0.72799999 0.027000001 1102577664
3.197 0.77700001 0.081 1100480512
2.4030001 0.59299999 -0.132 1110441984
2.5380001 0.62599999 -0.097999997 1100480512
2.677 0.65899998 -0.059999999 1100480512
2.8340001 0.69800001 -0.017000001 1102577664
3.0050001 0.74000001 0.029999999 1102577664
3.21 0.79100001 0.083999999 1100480512
2.4159999 0.60399997 -0.131 1111752704
2.543 0.63499999 -0.096000001 1100480512
2.691 0.67199999 -0.057999998 1100480512
2.8399999 0.70899999 -0.015 1102053376
3.017 0.75300002 0.033 1102577664
3.22 0.80400002 0.088 1100480512
2.418 0.61199999 -0.12899999 1109393408
2.55 0.64399999 -0.093999997 1099956224
2.6919999 0.68000001 -0.055 1099956224
2.855 0.72100002 -0.012 1102053376
3.026 0.764 0.035999998 1102577664
3.2349999 0.81699997 0.090999998 1100480512
2.431 0.62199998 -0.127 1108082688
2.556 0.653 -0.092 1099956224
2.7049999 0.69099998 -0.052999999 1100480512
2.8629999 0.73100001 -0.0089999996 1102053376
3.0380001 0.77499998 0.039000001 1102053376
3.2460001 0.829 0.094999999 1100480512
2.4319999 0.62900001 -0.125 1108344832
2.5669999 0.66299999 -0.090000004 1100480512
2.711 0.699 -0.050000001 1099956224
2.8699999 0.74000001 -0.0070000002 1102053376
3.0480001 0.78600001 0.041999999 1102577664
3.26 0.84100002 0.097999997 1101004800
2.444 0.63700002 -0.123 1107558400
2.575 0.671 -0.088 1100480512
2.727 0.70999998 -0.048 1099956224
2.8789999 0.75 -0.0040000002 1102053376
3.0599999 0.79699999 0.045000002 1102053376
3.27 0.852 0.102 1101004800
2.4519999 0.64499998 -0.121 1108082688
2.579 0.67799997 -0.085000001 1099956224
2.7360001 0.71899998 -0.045000002 1099956224
2.8940001 0.75999999 -0.001 1101529088
3.0769999 0.80800003 0.048999999 1102053376
3.279 0.86199999 0.106 1101004800
2.4619999 0.653 -0.119 1107820544
2.5940001 0.68699998 -0.082999997 1101004800
2.7420001 0.72600001 -0.041999999 1100480512
2.9030001 0.76800001 0.0020000001 1101529088
3.0829999 0.81599998 0.052000001 1101529088
3.2950001 0.87300003 0.11 1102053376
2.467 0.65899998 -0.117 1107820544
2.5969999 0.69300002 -0.079999998 1101529088
2.7539999 0.73400003 -0.039999999 1101004800
2.918 0.77700001 0.0049999999 1102053376
3.099 0.82599998 0.056000002 1101529088
3.3139999 0.884 0.114 1103101952
2.4760001 0.66500002 -0.114 1107558400
2.6140001 0.70099998 -0.078000002 1101004800
2.7639999 0.741 -0.037 1101004800
2.925 0.78399998 0.0080000004 1101529088
3.1110001 0.83399999 0.059999999 1101004800
3.3199999 0.89099997 0.118 1102577664
2.484 0.671 -0.112 1105199104
2.622 0.70700002 -0.075000003 1101004800
2.77 0.74699998 -0.034000002 1101004800
2.9360001 0.79100001 0.012 1101529088
3.1229999 0.84200001 0.064000003 1100480512
3.3280001 0.898 0.123 1101529088
2.493 0.676 -0.109 1105723392
2.6300001 0.71200001 -0.071999997 1101004800
2.79 0.755 -0.030999999 1101529088
2.9549999 0.80000001 0.015 1101529088
3.1400001 0.85000002 0.068000004 1100480512
3.349 0.90799999 0.127 1100480512
2.503 0.68099999 -0.107 1106247680
2.635 0.71700001 -0.068999998 1101004800
2.7950001 0.75999999 -0.027000001 1101004800
2.964 0.80500001 0.018999999 1101529088
3.1630001 0.86000001 0.071999997 1099956224
3.3759999 0.91900003 0.132 1098907648
2.5109999 0.68599999 -0.104 1103101952
2.6559999 0.72399998 -0.067000002 1101004800
2.8050001 0.76499999 -0.024 1101529088
2.973 0.81 0.022 1102053376
3.178 0.86699998 0.075999998 1099956224
3.395 0.92699999 0.13699999 1097859072
2.5179999 0.68900001 -0.101 1104150528
2.6619999 0.72799999 -0.063000001 1101004800
2.8210001 0.77100003 -0.021 1101529088
2.987 0.81599998 0.026000001 1102053376
3.187 0.87099999 0.079999998 1099956224
3.4300001 0.93900001 0.14300001 1099956224
2.527 0.69199997 -0.098999999 1103101952
2.675 0.73199999 -0.059999999 1101004800
2.8329999 0.77499998 -0.017000001 1101529088
2.9979999 0.81999999 0.029999999 1102053376
3.2090001 0.87800002 0.085000001 1099956224
3.454 0.94599998 0.148 1103626240
2.539 0.69599998 -0.096000001 1103101952
2.6889999 0.736 -0.057999998 1100480512
2.848 0.77999997 -0.014 1102053376
3.0109999 0.824 0.034000002 1102053376
3.2160001 0.88099998 0.089000002 1099956224
3.461 0.949 0.153 1106247680
2.55 0.699 -0.093000002 1103101952
2.704 0.741 -0.054000001 1100480512
2.8570001 0.78200001 -0.011 1102053376
3.036 0.83099997 0.037999999 1102053376
3.2349999 0.88599998 0.093000002 1099956224
3.47 0.95099998 0.15700001 1107558400
2.559 0.70099998 -0.090000004 1103101952
2.71 0.74199998 -0.050999999 1100480512
2.8659999 0.78399998 -0.0070000002 1102053376
3.0409999 0.83200002 0.041000001 1102053376
3.25 0.88999999 0.097999997 1099956224
3.4790001 0.95300001 0.162 1107296256
2.5680001 0.70200002 -0.088 1103101952
2.7179999 0.74199998 -0.048 1100480512
2.8740001 0.78500003 -0.0040000002 1102053376
3.0550001 0.83399999 0.045000002 1101529088
3.2709999 0.89399999 0.102 1099956224
3.487 0.954 0.167 1105199104
2.5780001 0.70300001 -0.085000001 1103101952
2.733 0.745 -0.045000002 1101004800
2.8889999 0.787 0 1102053376
3.0669999 0.83600003 0.048999999 1101529088
3.286 0.89600003 0.107 1100480512
3.516 0.95899999 0.17200001 1103101952
2.5910001 0.704 -0.082000002 1103101952
2.75 0.74699998 -0.041999999 1101004800
2.8989999 0.787 0.0020000001 1102053376
3.086 0.838 0.052999999 1101529088
3.3069999 0.898 0.111 1101004800
3.553 0.96700001 0.178 1101004800
2.5999999 0.704 -0.079000004 1102577664
2.76 0.74599999 -0.039000001 1101004800
2.915 0.78799999 0.0060000001 1101529088
3.0940001 0.83700001 0.057 1101004800
3.3169999 0.898 0.116 1102577664
3.5899999 0.97299999 0.184 1100480512
2.609 0.70300001 -0.077 1103101952
2.77 0.745 -0.035999998 1101529088
2.927 0.78799999 0.0089999996 1102053376
3.1110001 0.83700001 0.061000001 1100480512
3.3280001 0.89600003 0.12 1102053376
3.619 0.97600001 0.19 1099956224
2.6159999 0.70099998 -0.074000001 1103626240
2.783 0.745 -0.033 1101529088
2.9400001 0.787 0.013 1101529088
3.135 0.83899999 0.064999998 1099956224
3.3369999 0.89399999 0.124 1101004800
3.642 0.977 0.19499999 1099956224
2.632 0.69999999 -0.071000002 1104674816
2.793 0.74299997 -0.029999999 1102053376
2.96 0.787 0.016000001 1102053376
3.148 0.83700001 0.068999998 1099956224
3.348 0.89099997 0.12800001 1099956224
3.6600001 0.97500002 0.2 1100480512
2.6370001 0.69700003 -0.068000004 1102053376
2.8080001 0.741 -0.027000001 1101529088
2.967 0.78299999 0.018999999 1101529088
3.1630001 0.83499998 0.071999997 1099431936
3.3800001 0.89300001 0.133 1097859072
3.6760001 0.97299999 0.205 1100480512
2.651 0.69499999 -0.066 1102577664
2.8139999 0.73699999 -0.024 1101529088
2.9809999 0.77999997 0.023 1101529088
3.1760001 0.83200002 0.075999998 1099956224
3.3989999 0.89099997 0.13699999 1097859072
3.6930001 0.96899998 0.20999999 1101004800
2.658 0.69 -0.063000001 1102053376
2.826 0.73299998 -0.021 1101529088
2.9909999 0.77600002 0.026000001 1101529088
3.187 0.82700002 0.079999998 1099956224
3.425 0.88999999 0.142 1099956224
3.7090001 0.96499997 0.215 1101004800
2.6659999 0.68599999 -0.061000001 1102053376
2.835 0.72899997 -0.017999999 1101529088
3.0009999 0.77100003 0.028999999 1101529088
3.201 0.82300001 0.082999997 1099956224
3.4460001 0.88700002 0.146 1102577664
3.727 0.96100003 0.219 1101004800
2.6719999 0.68000001 -0.057999998 1102053376
2.845 0.72399998 -0.016000001 1101529088
3.013 0.76599997 0.032000002 1101529088
3.2149999 0.81800002 0.086999997 1099956224
3.451 0.87900001 0.15000001 1104674816
3.7409999 0.954 0.22400001 1101004800
2.688 0.676 -0.056000002 1102577664
2.8529999 0.71700001 -0.013 1101529088
3.017 0.759 0.035 1101004800
3.2279999 0.81199998 0.090000004 1099956224
3.4579999 0.87099999 0.153 1106771968
3.7520001 0.94599998 0.228 1100480512
2.694 0.66900003 -0.054000001 1102053376
2.8629999 0.71100003 -0.0099999998 1102053376
3.0320001 0.75300002 0.037999999 1101529088
3.2390001 0.80500001 0.093000002 1099956224
3.461 0.861 0.156 1106771968
3.7709999 0.93900001 0.23199999 1099956224
2.7030001 0.66299999 -0.050999999 1101529088
2.8710001 0.704 -0.0080000004 1102577664
3.0439999 0.74599999 0.039999999 1101529088
3.2520001 0.79799998 0.096000001 1099956224
3.4660001 0.85100001 0.15899999 1106771968
3.7820001 0.93000001 0.236 1099956224
2.7149999 0.65700001 -0.048999999 1103101952
2.8759999 0.69499999 -0.0049999999 1102577664
3.0539999 0.73900002 0.043000001 1102053376
3.2650001 0.79000002 0.098999999 1099956224
3.48 0.84299999 0.163 1106247680
3.793 0.92000002 0.23999999 1099956224
2.727 0.64999998 -0.046999998 1103626240
2.888 0.68800002 -0.003 1102577664
3.059 0.72899997 0.045000002 1101529088
3.2690001 0.77899998 0.102 1100480512
3.49 0.833 0.16599999 1104150528
3.8050001 0.90899998 0.243 1100480512
2.73 0.64099997 -0.045000002 1104150528
2.898 0.68000001 -0.001 1102577664
3.0650001 0.71899998 0.048 1102053376
3.276 0.76899999 0.104 1100480512
3.5039999 0.82300001 0.169 1103101952
3.816 0.89700001 0.24600001 1100480512
2.734 0.63099998 -0.043000001 1104674816
2.9000001 0.66900003 0 1102577664
3.0710001 0.708 0.050000001 1101529088
3.28 0.75700003 0.107 1101004800
3.53 0.815 0.17200001 1101529088
3.825 0.88499999 0.25 1101004800
2.7379999 0.62099999 -0.041999999 1112801280
2.9089999 0.65899998 0.0020000001 1103101952
3.0840001 0.699 0.052000001 1102053376
3.29 0.74599999 0.109 1102053376
3.5510001 0.80599999 0.176 1100480512
3.8380001 0.87199998 0.25299999 1101004800
2.7279999 0.60699999 -0.039999999 1109917696
2.9100001 0.64700001 0.0040000002 1103101952
3.089 0.68699998 0.054000001 1102053376
3.2939999 0.73299998 0.111 1102053376
3.576 0.796 0.17900001 1099956224
3.849 0.85799998 0.255 1100480512
2.727 0.59500003 -0.037999999 1125515264
2.9230001 0.63700002 0.0049999999 1103626240
3.092 0.67400002 0.056000002 1102053376
3.296 0.71899998 0.113 1103101952
3.5840001 0.78200001 0.18099999 1100480512
3.852 0.84200001 0.25799999 1099956224
2.921 0.62400001 0.0070000002 1105723392
3.095 0.66100001 0.057999998 1102053376
3.302 0.70499998 0.115 1103101952
3.599 0.76999998 0.184 1099956224
3.8599999 0.82599998 0.25999999 1099956224
2.921 0.61000001 0.0089999996 1100480512
3.1029999 0.648 0.059 1102053376
3.306 0.69099998 0.117 1103101952
3.608 0.75400001 0.186 1100480512
3.872 0.81099999 0.26199999 1100480512
2.757 0.56300002 -0.034000002 1101004800
2.918 0.59600002 0.0099999998 1125515264
3.109 0.63499999 0.061000001 1101529088
3.3110001 0.676 0.118 1102577664
3.619 0.74000001 0.18799999 1100480512
3.8800001 0.79400003 0.26499999 1099956224
2.7750001 0.55299997 -0.033 1112276992
2.924 0.583 0.011 1125580800
3.1199999 0.62199998 0.061999999 1101529088
3.316 0.66100001 0.119 1101529088
3.6270001 0.72299999 0.19 1100480512
3.8889999 0.77700001 0.266 1099431936
2.777 0.54000002 -0.032000002 1105723392
2.927 0.56900001 0.012 1125580800
3.1199999 0.60600001 0.063000001 1102053376
3.319 0.64499998 0.121 1101529088
3.6389999 0.70700002 0.191 1099956224
3.8929999 0.75800002 0.26800001 1099956224
2.783 0.52700001 -0.030999999 1104674816
2.9330001 0.55500001 0.013 1125515264
3.115 0.58899999 0.064000003 1103101952
3.323 0.62800002 0.122 1101004800
3.6440001 0.68900001 0.193 1099956224
3.9000001 0.73900002 0.26899999 1099956224
2.7850001 0.51200002 -0.029999999 1103101952
2.9389999 0.54000002 0.014 1103101952
3.1210001 0.574 0.064999998 1098907648
3.329 0.61199999 0.123 1100480512
3.6500001 0.671 0.19400001 1099956224
3.9000001 0.71799999 0.27000001 1098907648
2.793 0.49900001 -0.029999999 1103101952
2.95 0.52600002 0.015 1104674816
3.125 0.55800003 0.066 1109917696
3.3440001 0.597 0.124 1099956224
3.6500001 0.65100002 0.19400001 1099956224
3.9059999 0.69800001 0.271 1099431936
2.796 0.484 -0.028999999 1103101952
2.9549999 0.51099998 0.015 1102577664
3.1259999 0.54100001 0.066 1125515264
3.346 0.579 0.125 1098907648
3.6530001 0.63200003 0.19499999 1100480512
3.9119999 0.67699999 0.27200001 1098907648
2.7969999 0.46900001 -0.028999999 1103101952
2.9649999 0.49700001 0.016000001 1102577664
3.1240001 0.523 0.067000002 1125515264
3.349 0.56 0.126 1098907648
3.658 0.61199999 0.19599999 1100480512
3.915 0.65499997 0.273 1098907648
2.8 0.45300001 -0.028000001 1103101952
2.9649999 0.479 0.016000001 1102053376
3.128 0.50599998 0.067000002 1125515264
3.3570001 0.542 0.126 1097859072
3.661 0.59200001 0.19599999 1101004800
3.9130001 0.63300002 0.273 1099431936
2.8 0.43700001 -0.028000001 1103101952
2.967 0.463 0.017000001 1102053376
3.138 0.48899999 0.068000004 1125515264
3.3610001 0.52399999 0.127 1097859072
3.661 0.56999999 0.197 1101004800
3.911 0.61000001 0.273 1099431936
2.8039999 0.42199999 -0.028000001 1102053376
2.9660001 0.44499999 0.017000001 1101529088
3.138 0.47099999 0.068000004 1110441984
3.3659999 0.505 0.127 1097859072
3.6600001 0.54900002 0.197 1101004800
3.9170001 0.58700001 0.273 1099431936
2.8010001 0.40400001 -0.027000001 1102577664
2.97 0.428 0.017000001 1101529088
3.1370001 0.45199999 0.068000004 1093664768
3.368 0.48500001 0.127 1098907648
3.6589999 0.52700001 0.197 1100480512
3.9130001 0.56300002 0.273 1099431936
2.8039999 0.38800001 -0.027000001 1102053376
2.967 0.41 0.017000001 1101004800
3.1400001 0.433 0.068000004 1103101952
3.3729999 0.465 0.127 1098907648
3.661 0.50400001 0.197 1100480512
3.9159999 0.53899997 0.273 1099431936
2.8080001 0.37099999 -0.027000001 1102053376
2.9660001 0.391 0.017000001 1101004800
3.152 0.41600001 0.068000004 1102577664
3.3759999 0.44499999 0.127 1098907648
3.661 0.48199999 0.19599999 1101004800
3.921 0.51599997 0.273 1099956224
2.8080001 0.354 -0.027000001 1102053376
2.97 0.373 0.017000001 1101004800
3.1500001 0.39500001 0.068000004 1101529088
3.3710001 0.42300001 0.127 1099431936
3.6659999 0.45899999 0.19599999 1101004800
3.9159999 0.49000001 0.27200001 1099956224
2.8069999 0.336 -0.027000001 1102053376
2.97 0.35499999 0.017000001 1100480512
3.1489999 0.37599999 0.068000004 1101004800
3.375 0.40200001 0.126 1099431936
3.6619999 0.43599999 0.19599999 1101004800
3.9170001 0.465 0.27200001 1100480512
2.809 0.31900001 -0.028000001 1101529088
2.967 0.336 0.017000001 1101004800
3.154 0.35600001 0.068000004 1101004800
3.3800001 0.38100001 0.126 1099431936
3.6619999 0.412 0.19499999 1101529088
3.915 0.44 0.271 1100480512
2.8080001 0.30000001 -0.028000001 1101004800
2.9749999 0.317 0.016000001 1100480512
3.1489999 0.33500001 0.067000002 1100480512
3.382 0.359 0.126 1099956224
3.654 0.38699999 0.19400001 1101004800
3.9159999 0.41499999 0.271 1100480512
2.8099999 0.28200001 -0.028000001 1101004800
2.9719999 0.29800001 0.016000001 1100480512
3.155 0.315 0.067000002 1099956224
3.3789999 0.33700001 0.125 1099431936
3.6559999 0.36399999 0.19400001 1101004800
3.9130001 0.38800001 0.27000001 1099956224
2.809 0.264 -0.028000001 1101004800
2.9719999 0.278 0.016000001 1101004800
3.151 0.294 0.066 1099431936
3.382 0.315 0.125 1097859072
3.6570001 0.34 0.193 1101004800
3.9119999 0.36300001 0.26899999 1099431936
2.8110001 0.245 -0.028999999 1101004800
2.9649999 0.25799999 0.015 1100480512
3.1570001 0.27399999 0.066 1099956224
3.382 0.292 0.124 1098907648
3.6530001 0.315 0.192 1101004800
3.9130001 0.336 0.26800001 1099431936
2.809 0.227 -0.028999999 1100480512
2.9660001 0.23800001 0.015 1100480512
3.1500001 0.252 0.064999998 1099431936
3.381 0.26899999 0.124 1098907648
3.651 0.289 0.191 1101004800
3.904 0.30899999 0.26699999 1099956224
2.806 0.207 -0.029999999 1101004800
2.967 0.21799999 0.014 1100480512
3.1489999 0.23 0.064999998 1099956224
3.378 0.24600001 0.123 1098907648
3.6459999 0.264 0.19 1101004800
3.8959999 0.28099999 0.26499999 1099431936
2.8039999 0.18799999 -0.029999999 1100480512
2.967 0.198 0.014 1100480512
3.1500001 0.20900001 0.064000003 1098907648
3.378 0.223 0.122 1098907648
3.641 0.23899999 0.189 1101004800
3.891 0.25400001 0.264 1099431936
2.8050001 0.169 -0.029999999 1101004800
2.9679999 0.177 0.013 1100480512
3.145 0.18700001 0.064000003 1098907648
3.3699999 0.199 0.121 1098907648
3.6389999 0.213 0.18799999 1100480512
3.892 0.227 0.26300001 1099956224
2.803 0.149 -0.030999999 1101004800
2.9649999 0.15700001 0.013 1100480512
3.1470001 0.16500001 0.063000001 1099431936
3.3699999 0.175 0.121 1098907648
3.6329999 0.18700001 0.18700001 1100480512
3.8900001 0.199 0.26199999 1099956224
2.806 0.13 -0.030999999 1101004800
2.96 0.13600001 0.012 1099956224
3.1459999 0.14300001 0.061999999 1098907648
3.369 0.152 0.12 1098907648
3.6340001 0.162 0.18700001 1101004800
3.888 0.171 0.26100001 1100480512
2.8080001 0.11 -0.032000002 1101004800
2.9649999 0.115 0.012 1099956224
3.1440001 0.12 0.061999999 1098907648
3.368 0.127 0.119 1099431936
3.622 0.13500001 0.185 1100480512
3.8840001 0.14300001 0.25999999 1100480512
2.8050001 0.090000004 -0.033 1100480512
2.9649999 0.093999997 0.011 1099956224
3.141 0.097999997 0.061000001 1098907648
3.3670001 0.103 0.118 1099431936
3.625 0.109 0.184 1100480512
3.878 0.115 0.25799999 1100480512
2.806 0.07 -0.033 1101004800
2.9660001 0.071999997 0.0099999998 1099956224
3.142 0.075000003 0.059999999 1099431936
3.3629999 0.078000002 0.117 1099956224
3.6199999 0.082000002 0.183 1100480512
3.882 0.086000003 0.25799999 1099956224
2.8069999 0.050000001 -0.034000002 1101529088
2.9619999 0.050999999 0.0099999998 1103101952
3.1429999 0.052000001 0.059999999 1099431936
3.359 0.054000001 0.117 1099956224
3.6199999 0.056000002 0.183 1099956224
3.878 0.057999998 0.257 1099956224
2.806 0.028999999 -0.034000002 1101004800
2.95 0.028999999 0.0089999996 1096810496
3.1440001 0.028999999 0.059 1099431936
3.355 0.028999999 0.116 1099956224
3.612 0.028999999 0.18099999 1099956224
3.875 0.028999999 0.25600001 1099956224
2.802 0.0089999996 -0.035 1101004800
2.95 0.0070000002 0.0089999996 1101529088
3.145 0.0060000001 0.057999998 1099956224
3.362 0.0040000002 0.115 1101004800
3.612 0.0020000001 0.18099999 1099956224
3.8670001 0 0.25400001 1099956224
2.8 -0.011 -0.035 1100480512
2.9579999 -0.013 0.0080000004 1101004800
3.141 -0.016000001 0.057999998 1098907648
3.359 -0.018999999 0.115 1101004800
3.609 -0.023 0.18000001 1099956224
3.872 -0.028000001 0.25400001 1100480512
2.796 -0.030999999 -0.035 1100480512
2.954 -0.035 0.0080000004 1100480512
3.141 -0.039999999 0.057 1099431936
3.3599999 -0.045000002 0.114 1101529088
3.6059999 -0.050999999 0.17900001 1099431936
3.8670001 -0.057 0.25299999 1100480512
2.8 -0.052000001 -0.035999998 1099956224
2.964 -0.057 0.0070000002 1099431936
3.138 -0.063000001 0.057 1097859072
3.3540001 -0.07 0.113 1101529088
3.605 -0.078000002 0.178 1099956224
3.8610001 -0.086000003 0.252 1100480512
2.7980001 -0.072999999 -0.035999998 1099956224
2.9630001 -0.079999998 0.0070000002 1098907648
3.138 -0.086000003 0.056000002 1096810496
3.3570001 -0.094999999 0.113 1101529088
3.6059999 -0.105 0.178 1099956224
3.858 -0.115 0.25099999 1101004800
2.7950001 -0.093999997 -0.037 1099956224
2.9619999 -0.102 0.0060000001 1097859072
3.1429999 -0.111 0.056000002 1096810496
3.3570001 -0.121 0.112 1102053376
3.609 -0.133 0.177 1099431936
3.858 -0.145 0.25 1099956224
2.799 -0.115 -0.037 1099431936
2.9549999 -0.124 0.0060000001 1098907648
3.141 -0.134 0.055 1096810496
3.3540001 -0.146 0.112 1102577664
3.6099999 -0.16 0.177 1099431936
3.858 -0.175 0.25 1099956224
2.7909999 -0.13600001 -0.037 1098907648
2.957 -0.147 0.0060000001 1097859072
3.141 -0.15800001 0.055 1096810496
3.346 -0.17200001 0.111 1102577664
3.609 -0.18799999 0.177 1099956224
3.859 -0.205 0.25 1101004800
2.7969999 -0.15800001 -0.037999999 1099431936
2.9590001 -0.17 0.0049999999 1098907648
3.1370001 -0.182 0.055 1096810496
3.3499999 -0.198 0.111 1102577664
3.6110001 -0.21699999 0.176 1099956224
3.8610001 -0.235 0.249 1099956224
2.7909999 -0.17900001 -0.037999999 1099431936
2.961 -0.193 0.0049999999 1098907648
3.138 -0.207 0.055 1097859072
3.359 -0.22499999 0.111 1103101952
3.6140001 -0.245 0.176 1099956224
3.869 -0.266 0.25 1099956224
2.7969999 -0.20100001 -0.037999999 1099431936
2.9619999 -0.21600001 0.0049999999 1097859072
3.138 -0.23100001 0.054000001 1096810496
3.375 -0.252 0.112 1108082688
3.615 -0.273 0.176 1099956224
3.865 -0.296 0.249 1099956224
2.7939999 -0.223 -0.037999999 1098907648
2.9630001 -0.23899999 0.0049999999 1098907648
3.148 -0.257 0.054000001 1096810496
3.3710001 -0.278 0.111 1108606976
3.6259999 -0.303 0.177 1100480512
3.8729999 -0.32800001 0.25 1099956224
2.793 -0.245 -0.037999999 1099431936
2.9619999 -0.26199999 0.0049999999 1098907648
3.1429999 -0.28099999 0.054000001 1095761920
3.372 -0.30500001 0.111 1109393408
3.6270001 -0.33199999 0.177 1099956224
3.878 -0.359 0.25 1099956224
2.7980001 -0.26699999 -0.037999999 1098907648
2.961 -0.285 0.0049999999 1097859072
3.148 -0.30599999 0.054000001 1095761920
3.372 -0.33199999 0.111 1109393408
3.6300001 -0.361 0.177 1100480512
3.8829999 -0.391 0.25099999 1100480512
2.7950001 -0.289 -0.037999999 1098907648
2.9630001 -0.30899999 0.0049999999 1097859072
3.1470001 -0.331 0.054000001 1095761920
3.3729999 -0.359 0.111 1117782016
3.6270001 -0.38999999 0.177 1100480512
3.8800001 -0.42199999 0.25099999 1100480512
2.7920001 -0.31099999 -0.037999999 1098907648
2.9630001 -0.333 0.0049999999 1097859072
3.1440001 -0.35600001 0.055 1095761920
3.369 -0.38499999 0.112 1109131264
3.6300001 -0.41999999 0.177 1099956224
3.8840001 -0.454 0.25099999 1099956224
2.793 -0.333 -0.037999999 1099431936
2.9649999 -0.35699999 0.0049999999 1098907648
3.145 -0.382 0.055 1096810496
3.3599999 -0.412 0.112 1107558400
3.6370001 -0.44999999 0.178 1099431936
3.8870001 -0.486 0.252 1100480512
2.7969999 -0.35600001 -0.037999999 1099956224
2.9649999 -0.38100001 0.0049999999 1097859072
3.151 -0.40799999 0.055 1096810496
3.3570001 -0.43799999 0.112 1103626240
3.6359999 -0.479 0.17900001 1099431936
3.8889999 -0.51800001 0.25299999 1100480512
2.8 -0.37900001 -0.037999999 1099956224
2.9679999 -0.405 0.0049999999 1098907648
3.154 -0.43399999 0.056000002 1096810496
3.3699999 -0.46700001 0.113 1099956224
3.641 -0.50999999 0.17900001 1099431936
3.8959999 -0.551 0.25400001 1100480512
2.802 -0.40200001 -0.037999999 1099431936
2.9690001 -0.42899999 0.0060000001 1098907648
3.155 -0.46000001 0.056000002 1097859072
3.391 -0.498 0.114 1095761920
3.6459999 -0.54100001 0.18000001 1099956224
3.9000001 -0.58399999 0.255 1101004800
2.799 -0.42399999 -0.037 1099431936
2.973 -0.454 0.0060000001 1098907648
3.1600001 -0.486 0.057 1098907648
3.402 -0.528 0.115 1093664768
3.652 -0.57200003 0.182 1099956224
3.905 -0.61699998 0.25600001 1100480512
2.8110001 -0.449 -0.037 1099431936
2.983 -0.47999999 0.0070000002 1097859072
3.168 -0.514 0.057999998 1099431936
3.414 -0.55800003 0.116 1093664768
3.6589999 -0.60299999 0.183 1100480512
3.911 -0.65100002 0.25799999 1099956224
2.813 -0.472 -0.037 1095761920
2.9809999 -0.50400001 0.0080000004 1098907648
3.1689999 -0.54000002 0.057999998 1099431936
3.4230001 -0.588 0.117 1093664768
3.6630001 -0.63499999 0.184 1099956224
3.9219999 -0.68599999 0.25999999 1100480512
2.8169999 -0.49599999 -0.035999998 1099431936
2.9849999 -0.52999997 0.0080000004 1098907648
3.177 -0.56800002 0.059 1099956224
3.428 -0.61799997 0.119 1093664768
3.668 -0.66600001 0.185 1101004800
3.931 -0.72000003 0.26199999 1100480512
2.8280001 -0.52200001 -0.035999998 1099956224
